X,Y,Z
-341.861,2.93714,-153.363
-340.236,2.33113,-157.978
-330.014,-4.59951,-148.685
-321.419,-7.86959,-142.874
-332.813,-4.13585,-171.84
-332.3,-4.31756,-184.574
-317.914,-10.9164,-163.314
-314.567,-12.0126,-163.815
-347.056,0.968414,-103.362
-345.654,0.865445,-106.361
-344.511,-0.0179994,-111.381
-345.256,-0.372116,-116.777
-350.847,0.452875,-120.413
-350.873,-1.13486,-124.841
-331.355,-6.50013,-126.214
-345.934,-2.17537,-131.159
-345.302,-0.0610837,-134.984
-342.893,-1.51881,-142.09
-340.433,-2.29926,-144.034
-338.825,-1.92963,-148.064
-336.866,-3.91148,-149.392
-337.525,-3.27292,-161.63
-329.911,-6.70596,-155.251
-324.644,-9.47685,-159.341
-317.254,-11.881,-149.672
-323.433,-8.95683,-174.72
-351.069,-5.57055,-100.88
-357.19,-1.62401,-102.984
-346.614,-4.64839,-110.497
-348.351,-3.01553,-124.698
-331.298,-9.53479,-125.659
-346.673,-3.78115,-132.04
-326.66,-10.9716,-129.39
-351.097,-6.01559,-143.353
-336.669,-7.31283,-145.038
-333.256,-8.30358,-149.865
-330.692,-8.35106,-152.183
-327.725,-10.1248,-149.745
-323.329,-11.1911,-153.355
-323.809,-11.2752,-162.008
-318.973,-12.0139,-160.352
-310.11,-14.7961,-157.953
-332.485,-11.6826,-103.543
-353.674,-6.09981,-93.681
-348.649,-8.2586,-101.84
-347.081,-9.40277,-106.862
-345.578,-10.966,-111.104
-348.955,-7.36861,-125.901
-340.281,-10.8822,-127.022
-340.835,-11.206,-131.091
-355.428,-6.82973,-138.135
-334.376,-9.9813,-144.214
-328.935,-11.7845,-144.197
-330.877,-12.187,-149.022
-330.35,-12.2127,-157.925
-328.98,-12.9061,-157.71
-322.048,-13.4879,-153.644
-322.881,-12.5336,-170.566
-314.82,-14.0114,-153.34
-346.89,-14.6185,-93.7014
-354.334,-14.8887,-101.429
-358.476,-14.2789,-104.513
-344.538,-12.7756,-115.315
-339.132,-12.7327,-122.623
-331.029,-13.5444,-125.833
-352.397,-10.7325,-133.094
-334.031,-13.9931,-131.806
-339.793,-14.508,-138.159
-321.949,-15.0895,-131.432
-327.123,-13.3844,-137.132
-330.708,-13.5956,-146.344
-330.497,-13.5344,-149.336
-330.222,-12.9742,-153.077
-320.37,-14.3742,-146.445
-324.059,-14.4973,-159.984
-312.215,-15.1116,-161.863
-342.182,-20.777,-41.7008
-346.217,-22.981,-44.4583
-349.233,-22.1192,-50.1718
-358.65,-21.8153,-55.1156
-342.679,-19.753,-73.7885
-343.921,-20.7653,-75.8938
-348.338,-22.2144,-83.0102
-338.963,-25.6481,-40.9449
-350.272,-25.3928,-38.4586
-337.174,-24.4845,-51.8511
-345.849,-27.8717,-56.2222
-340.586,-24.1314,-59.5884
-350.551,-27.1367,-64.8632
-341.25,-25.5738,-67.8257
-347.613,-26.2118,-84.1015
-342.735,-24.511,-82.9914
-344.89,-28.9966,-35.7513
-353.066,-30.4124,-34.5141
-341.908,-30.8067,-47.9926
-338.071,-28.3497,-53.38
-341.646,-27.1719,-57.4568
-343.074,-29.6013,-61.3767
-343.747,-28.8207,-65.4695
-323.138,-24.3032,-68.5003
-343.073,-27.9229,-77.8956
-343.153,-28.6129,-80.2825
-345.809,-32.2853,-88.7762
-342.506,-34.4673,-38.4844
-340.607,-33.8176,-43.5033
-342.65,-31.9744,-58.2486
-343.393,-33.0514,-58.7339
-342.984,-35.2773,-69.9288
-340.295,-30.6385,-70.9244
-332.896,-29.2774,-73.4861
-347.446,-33.6261,-85.2274
-328.872,-28.6883,-77.8828
-343.703,-35.6541,-92.8685
-337.012,-35.3523,-39.2011
-340.889,-39.2067,-39.3991
-340.488,-34.9155,-52.2892
-341.852,-37.6298,-59.1298
-339.987,-38.1645,-65.5097
-342.608,-36.4282,-67.5007
-342.581,-39.3706,-83.1593
-336.112,-35.7904,-85.4324
-334.259,-35.1603,-86.5659
-327.089,-29.5239,-84.1401
-344.565,-41.7344,-41.4239
-334.702,-37.3793,-62.8745
-338.925,-41.4887,-66.8083
-325.603,-30.8913,-74.3821
-326.187,-33.2314,-79.1555
-338.583,-41.7046,-92.8488
-332.645,-41.2449,-40.1264
-337.59,-43.474,-40.2091
-339.859,-43.9359,-45.866
-333.082,-40.4521,-52.4418
-334.773,-41.1873,-60.2431
-330.939,-40.0315,-69.1643
-336.291,-45.9868,-79.2336
-340.424,-45.1264,-91.9947
-329.652,-38.4762,-89.382
-328.23,-36.9138,-91.9589
-333.596,-46.3328,-42.9807
-326.135,-39.4558,-51.0836
-334.539,-45.6029,-50.9119
-327.163,-40.2706,-59.3139
-338.235,-47.9736,-61.4984
-336.942,-48.7749,-75.6695
-334.395,-49.827,-80.7014
-335.943,-47.7714,-84.7221
-328.387,-40.4927,-93.4998
-321.276,-34.5118,-94.7451
-330.812,-48.6331,-42.4157
-328.275,-43.5845,-50.1329
-330.307,-46.9587,-54.6421
-330.84,-47.1993,-62.5347
-324.953,-43.2102,-79.3464
-324.302,-41.3018,-88.1767
-323.411,-46.034,-41.1132
-326.791,-53.39,-43.2268
-325.343,-48.6999,-59.0684
-325.658,-49.017,-64.6788
-328.091,-51.1724,-70.7339
-330.514,-54.7406,-77.042
-330.425,-54.1577,-81.7292
-324.066,-44.0982,-83.2128
-320.709,-38.7945,-80.8727
-319.497,-38.5964,-86.4444
-321.858,-40.6958,-93.6109
-321.044,-50.4094,-62.6803
-319.531,-47.6282,-67.796
-321.705,-45.4327,-75.9441
-318.696,-41.6293,-76.6666
-317.88,-42.7523,-77.8487
-320.125,-46.7787,-87.5081
-320.582,-50.1627,-91.4484
-318.31,-40.7978,-94.0917
-323.567,-56.9832,-43.4217
-319.027,-49.6868,-65.4705
-317.036,-44.2491,-67.2312
-316.659,-44.9528,-70.6618
-313.578,-36.1587,-75.2102
-318.057,-45.1787,-82.6221
-317.69,-46.946,-95.2323
-314.222,-41.6716,-94.5173
-318.079,-59.2912,-44.4095
-314.686,-47.9848,-59.7436
-315.753,-55.5481,-61.4928
-313.724,-49.9416,-65.6165
-313.182,-39.7095,-72.1735
-312.355,-38.2348,-76.4708
-314.262,-45.9647,-82.7599
-311.451,-37.5076,-93.6574
-312.657,-49.8481,-42.0121
-311.929,-49.9416,-50.4305
-312.859,-66.9738,-54.0606
-311.526,-42.8991,-62.9264
-312.342,-52.7121,-69.4059
-311.542,-50.108,-77.3311
-309.608,-37.8724,-76.7123
-312.034,-46.8279,-86.2819
-311.168,-46.1463,-89.4569
-310.298,-42.3368,-94.7664
-307.751,-51.5742,-44.4704
-308.327,-43.7922,-54.9593
-308.145,-56.5203,-54.3964
-308.849,-62.6301,-61.9016
-309.002,-54.9193,-63.3546
-307.428,-52.3653,-71.7049
-308.243,-44.5005,-80.7115
-308.712,-46.8304,-83.6587
-304.691,-51.8316,-46.7207
-305.404,-56.6851,-47.7076
-306.365,-56.6613,-52.8572
-303.625,-54.2236,-56.7624
-305.234,-60.4001,-63.5436
-305.759,-50.4003,-66.6108
-304.47,-47.4257,-70.103
-300.257,-52.0948,-49.8674
-299.421,-69.2934,-44.9448
-299.016,-67.3953,-56.0824
-301.291,-47.7687,-63.1298
-301.512,-48.3161,-69.3714
-301.7,-51.0445,-73.9539
-303.772,-47.4172,-85.3612
-302.645,-43.9663,-90.4306
-302.906,-39.1855,-90.4485
-301.308,-44.3324,-44.0517
-298.036,-49.6476,-52.1994
-296.86,-52.7153,-53.0006
-291.426,-81.0487,-47.3833
-291.385,-80.248,-55.8473
-292.451,-65.7133,-61.9605
-300.048,-50.4134,-68.0155
-297.401,-49.3155,-72.1649
-298.143,-47.8914,-72.7965
-298.055,-47.7906,-78.3013
-303.122,-37.0572,-74.7887
-303.247,-36.1653,-81.267
-290.766,-56.9721,-47.2227
-292.833,-58.9872,-49.3868
-290.75,-58.4095,-53.1356
-287.879,-63.0422,-64.4357
-297.947,-44.98,-68.4852
-296.03,-49.4922,-71.0111
-297.09,-47.7381,-75.1044
-296.115,-47.8933,-76.7219
-298.871,-43.3576,-78.315
-291.84,-53.0058,-50.1384
-290.131,-57.2785,-51.3438
-291.451,-53.5596,-57.9504
-293.073,-48.4446,-68.4349
-294.521,-47.1157,-77.0292
-297.655,-36.6614,-75.2061
-294.807,-43.4346,-83.1222
-295.834,-39.5608,-90.759
-283.249,-53.2055,-45.1794
-285.382,-52.1033,-52.4518
-286.197,-49.3455,-55.2792
-285.961,-53.0697,-60.803
-289.106,-47.0775,-65.7398
-289.537,-45.0612,-67.3371
-275.969,-64.2538,-73.3597
-289.71,-45.0557,-75.4185
-291.233,-42.4466,-76.1517
-292.068,-40.4515,-80.6182
-297.852,-35.4297,-83.87
-281.197,-51.2542,-53.864
-281.971,-51.4702,-61.6496
-286.014,-46.6332,-65.7731
-282.74,-53.1157,-68.1895
-282.156,-47.701,-77.5977
-293.807,-35.6189,-78.6132
-292.714,-38.6242,-85.0103
-292.606,-37.845,-90.4253
-291.868,-38.9005,-93.5977
-278.955,-47.057,-52.7069
-275.984,-51.1059,-53.8108
-277.537,-47.4583,-63.4241
-281.689,-45.3431,-68.4504
-279.226,-49.4727,-70.8442
-283.811,-40.7955,-73.2897
-282.241,-42.4896,-89.9432
-291.72,-35.1217,-82.7883
-288.963,-36.1247,-88.4234
-276.221,-43.2465,-48.2173
-271.935,-47.0698,-46.7041
-278.884,-41.0829,-57.6276
-280.24,-39.3531,-64.596
-278.947,-43.3108,-70.6487
-276.497,-43.4995,-75.0421
-278.862,-43.0954,-82.6504
-284.291,-37.7634,-88.0214
-289.335,-35.1471,-88.4362
-264.646,-49.1644,-48.1221
-270.089,-44.1882,-53.8659
-269.968,-41.6336,-60.1676
-272.635,-41.5753,-65.8213
-281.752,-37.7571,-72.3346
-272.927,-43.1466,-75.9479
-282.396,-36.8158,-78.4353
-282.051,-36.1342,-81.6079
-285.192,-33.5776,-92.2161
-267.518,-40.8666,-52.2854
-267.468,-37.9569,-58.9516
-270.654,-38.6606,-68.7304
-276.816,-35.3527,-71.4364
-272.427,-36.0909,-75.626
-280.608,-33.9175,-82.6543
-281.991,-33.6096,-84.0037
-286.987,-30.9912,-90.761
-255.026,-36.9359,-53.7672
-268.437,-33.1638,-66.7696
-270.426,-33.1195,-71.3435
-271.594,-34.9925,-76.3531
-279.725,-31.8617,-79.242
-283.572,-29.9951,-84.9524
-283.582,-28.9782,-95.2187
-257.981,-35.1373,-53.0714
-269.342,-28.5035,-67.056
-268.258,-29.5825,-79.0142
-278.187,-27.5722,-76.7595
-277.084,-27.5699,-88.2214
-282.222,-26.9302,-88.1292
-259.615,-25.5106,-54.3631
-262.857,-24.5309,-59.6768
-270.821,-25.2221,-69.6089
-269.658,-27.4189,-71.3754
-276.529,-23.9157,-74.8648
-275.887,-23.5105,-81.9935
-277.304,-24.4042,-87.2647
-278.296,-25.4415,-88.9739
-279.823,-24.8018,-91.541
-256.697,-20.7815,-50.1741
-266.588,-20.603,-58.8237
-266.413,-19.7858,-65.419
-267.18,-22.411,-68.5417
-269.708,-20.9149,-72.4752
-273.314,-21.3572,-75.0367
-274.476,-20.0618,-80.044
-271.015,-22.8171,-83.2891
-276.934,-22.2054,-86.8796
-279.359,-20.8435,-88.1084
-266.761,-15.6719,-56.2983
-251.46,-19.1709,-60.5814
-270.087,-19.403,-65.1138
-268.872,-18.5312,-69.1222
-273.54,-19.0274,-72.9083
-272.675,-18.8807,-76.1757
-272.313,-18.0889,-79.5925
-275.68,-19.645,-81.2874
-274.39,-17.0201,-85.6765
-276.032,-17.5228,-90.1848
-264.294,-13.1711,-51.5053
-257.759,-11.6708,-55.0323
-257.372,-12.187,-56.3396
-267.133,-12.9393,-62.8928
-262.307,-14.2133,-68.3644
-271.88,-16.009,-71.7199
-267.811,-14.0373,-75.7576
-267.912,-13.4008,-85.6275
-275.871,-14.2912,-88.6321
-273.008,-14.7101,-94.3385
-280.251,-16.4036,-92.8438
-265.001,-9.18826,-55.4239
-254.809,-2.89737,-58.1945
-262.302,-6.36149,-66.2251
-270.186,-11.6034,-69.9363
-271.789,-11.1771,-76.2829
-271.189,-8.67896,-82.017
-269.637,-9.52183,-86.6337
-279.232,-10.8405,-85.8779
-273.734,-12.1961,-91.7125
-260.588,-0.0916732,-53.1422
-263.444,-3.25147,-60.723
-268.509,-3.23076,-64.6199
-267.872,-5.43898,-70.2945
-261.211,-0.897969,-72.1461
-272.006,-7.89143,-76.1461
-271.731,-5.99863,-81.0014
-272.715,-5.21269,-85.9868
-273.624,-5.66526,-92.7216
-273.53,-8.56485,-92.2983
-259.371,7.61779,-47.4869
-264.718,4.15436,-54.3899
-267.652,1.60673,-61.5585
-261.284,2.78197,-62.9044
-260.476,2.3972,-68.4007
-270.922,-1.26879,-76.0158
-278.756,-6.51042,-79.5808
-271.361,0.181139,-88.4721
-275.467,-1.84285,-92.2935
-264.084,7.70124,-52.0944
-267.512,5.2651,-59.4104
-268.835,4.6881,-62.059
-278.55,-0.203635,-70.0227
-271.032,2.87931,-74.9372
-273.235,1.75295,-79.4382
-272.608,3.79754,-83.2551
-276.711,1.11343,-92.2433
-261.725,16.6205,-46.4945
-267.787,10.9129,-55.3658
-278.172,3.47201,-62.3828
-263.428,17.4644,-64.8032
-269.743,9.02899,-67.9351
-274.579,5.34624,-78.9194
-276.484,7.14996,-84.3989
-277.504,5.39034,-88.1845
-277.564,3.91113,-90.8069
-277.94,7.22435,-51.911
-268.43,17.7074,-50.097
-270.329,15.1393,-56.9682
-265.326,18.4649,-65.7193
-265.704,18.2243,-70.6777
-274.652,15.4265,-74.7632
-274.851,11.9912,-77.7995
-273.706,12.5685,-84.6419
-274.795,11.5246,-88.3054
-269.881,29.8889,-52.8784
-270.796,21.022,-58.1978
-273.095,23.9602,-61.05
-273.791,20.4805,-73.9318
-276.921,16.3372,-78.0436
-272.108,28.178,-86.9787
-275.881,18.6616,-88.9291
-272.057,31.0998,-47.191
-274.36,27.9773,-60.8256
-276.066,28.5984,-67.7075
-276.829,29.8914,-77.1818
-280.012,23.307,-80.1386
-277.046,30.6261,-88.6892
-277.255,38.4552,-43.8723
-275.617,38.872,-51.8327
-276.762,40.458,-55.0393
-279.138,34.4547,-65.0822
-278.278,41.4381,-68.2899
-279.026,35.4864,-78.2546
-282.412,30.2147,-83.304
-278.788,39.2944,-89.2013
-282.122,43.0537,-43.9537
-281.374,42.0196,-49.6026
-280.046,41.5963,-55.6548
-287.895,38.8679,-62.5947
-282.458,38.6181,-69.1485
-287.515,36.3883,-77.6436
-285.957,36.0029,-82.0436
-288.981,33.2501,-86.0493
-286.755,52.5052,-46.1213
-287.435,52.3007,-54.5555
-288.247,38.7559,-64.1225
-288.552,38.5754,-69.1563
-288.897,37.8348,-73.6015
-289.279,35.6251,-80.5589
-295.917,58.8145,-40.6957
-297.599,63.7911,-52.2508
-292.744,59.2583,-62.4769
-294.969,61.9402,-69.4649
-291.309,60.5275,-80.113
-301.893,63.9943,-43.6095
-299.714,62.5582,-49.8897
-298.521,67.5384,-59.0561
-298.525,71.7292,-68.9062
-299.257,79.5494,-84.5356
-314.133,74.8823,-38.6405
-310.877,76.9511,-53.3603
-315.995,78.5072,-58.2983
-315.499,74.2703,-76.1007
-315.392,79.4768,-78.4676
-324.91,67.9019,-44.4631
-323.054,70.1384,-50.494
-320.89,71.4205,-62.7613
-319.737,70.9459,-67.1185
-324.175,88.5417,-83.5511
-327.393,64.9419,-36.7222
-330.509,67.6192,-41.0503
-330.426,71.3521,-51.363
-328.624,74.3398,-61.2845
-336.949,73.3055,-67.6717
-330.999,65.5308,-77.4815
-341.368,60.4386,-37.6385
-339.468,60.915,-41.0426
-342.55,64.8257,-49.7359
-342.05,59.0705,-62.0969
-343.467,73.5333,-76.2089
-329.66,46.3145,-74.0985
-344.952,46.3856,-35.1502
-344.53,49.9427,-47.997
-341.848,46.5169,-56.0415
-344.458,62.3345,-61.078
-348.216,51.9403,-67.6416
-345.394,53.2673,-80.1837
-341.57,52.2249,-87.3742
-345.724,42.6528,-32.6878
-347.307,43.1331,-42.0298
-347.836,44.4029,-47.9222
-348.761,45.7982,-52.8023
-345.764,34.9208,-62.769
-350.532,40.3602,-69.353
-344.271,39.0982,-78.2187
-343.382,39.5492,-87.3524
-348.751,28.5254,-36.7814
-349.653,29.3794,-44.1506
-348.212,27.4109,-51.722
-347.789,28.3661,-58.4763
-352.89,32.5476,-63.4985
-346.559,25.3642,-70.2921
-348.858,29.8159,-73.9326
-349.212,30.4897,-81.9816
-341.797,25.7508,-88.635
-348.967,19.3418,-33.2311
-348.705,21.1847,-38.6105
-347.12,21.4955,-45.5259
-345.826,19.9981,-50.3798
-345.502,19.828,-55.106
-347.603,23.6134,-60.7811
-348.059,23.2182,-70.5584
-347.321,22.7288,-76.4461
-344.748,14.3608,-77.6025
-344.927,19.4879,-85.676
-351.503,14.5484,-32.6189
-350.991,17.3174,-40.686
-348.429,11.7076,-44.13
-353.218,15.9472,-51.2146
-348.958,11.3985,-60.5656
-357.462,23.1209,-77.8295
-368.687,28.8585,-85.4298
-350.468,7.01472,-35.6616
-350.48,5.96819,-47.8584
-343.917,3.31099,-57.9147
-353.908,8.88914,-66.329
-342.893,4.05488,-67.0134
-360.27,13.31,-74.1969
-357.48,12.1768,-85.6872
-344.322,3.11813,-83.9419
-344.772,3.3652,-89.886
-350.291,-0.442805,-37.5681
-348.822,1.27545,-45.9909
-352.259,2.86377,-53.5174
-351.515,1.60634,-57.4
-350.141,0.0166641,-62.1554
-358.819,3.4974,-67.4851
-344.29,-1.82042,-70.9108
-344.708,1.8769,-77.3571
-349.941,1.36978,-89.5006
-339.275,-1.55669,-90.0699
-347.694,-4.31649,-38.9133
-348.046,-3.24134,-41.3968
-347.086,-3.18954,-47.8161
-345.152,-4.63462,-54.1552
-343.046,-6.07577,-61.7262
-365.801,3.25988,-60.3178
-343.084,-4.70568,-67.4987
-362.53,3.07153,-72.8806
-351.006,-2.88381,-78.9826
-345.503,-5.84323,-80.9932
-335.873,-9.82087,-83.5607
-340.494,-6.57252,-87.4981
-327.176,-12.6377,-82.9573
-350.255,-9.11625,-34.4204
-351.473,-5.36946,-43.4958
-348.634,-8.27836,-74.0481
-342.84,-8.56669,-77.3041
-345.324,-12.2337,-42.5054
-351.135,-11.7456,-46.7354
-350.559,-12.7274,-68.9672
-346.723,-13.4568,-75.732
-348.23,-13.6218,-81.0275
-356.808,-12.1689,-92.0336
-344.972,-15.6175,-89.3687
-350.217,-18.7117,-48.8772
-349.49,-15.8061,-58.5236
-339.088,-17.2145,-64.9469
-358.439,-17.2607,-67.4593
-350.174,-15.5972,-80.2559
-349.528,-19.2187,-81.7967
-353.048,-16.1897,-89.8787
-341.367,-21.9121,9.2511
-340.393,-25.1962,4.62559
-344.28,-24.2765,3.09514
-344.407,-22.5932,-8.01774
-345.14,-22.8432,-13.3203
-341.768,-25.0598,-25.9896
-342.892,-23.1776,-34.7491
-344.166,-27.016,10.7837
-340.874,-27.6689,5.70371
-347.731,-30.184,4.41086
-338.992,-29.6442,-14.5341
-340.458,-28.5675,-17.5148
-342.127,-27.5304,-20.3627
-354.032,-28.9163,-29.3363
-341.003,-27.7438,-31.0944
-338.787,-33.2715,7.01503
-338.095,-32.0819,-0.479636
-343.557,-31.0812,-5.81028
-338.006,-31.0083,-8.89408
-339.266,-32.4481,-11.1583
-352.938,-33.2095,-29.3958
-331.263,-34.7162,9.54554
-343.667,-38.7474,6.40655
-338.133,-37.9165,-1.4358
-336.377,-37.2416,-6.23673
-343.917,-38.8914,-19.5525
-339.777,-38.5077,-20.3675
-348.544,-41.1933,-30.7026
-334.52,-36.6318,-34.1926
-346.72,-46.6066,9.80663
-335.395,-39.8351,1.0112
-340.779,-43.6179,-3.84981
-334.293,-40.8356,-19.2653
-338.43,-42.3653,-21.288
-333.494,-39.0494,-25.6647
-332.228,-41.4232,3.33617
-341.459,-49.1173,4.96376
-339.414,-46.7652,-0.803203
-336.706,-43.7957,-10.4148
-337.963,-45.788,-15.0685
-334.677,-46.9932,-21.9411
-333.792,-44.0626,-28.748
-325.9,-38.6839,-37.375
-334.275,-48.9352,3.23478
-340.102,-52.6405,-3.38221
-334.581,-52.039,-7.70488
-331.909,-45.8755,-14.7459
-333.432,-47.6938,-24.6728
-339.311,-50.5747,-30.3735
-323.596,-39.4623,-26.772
-326.185,-43.8319,-32.8906
-330.702,-54.9441,-2.33359
-329.662,-54.5925,-9.92681
-323.388,-47.9591,-20.5296
-323.111,-46.25,-24.5929
-326.319,-47.5719,-30.8611
-333.057,-63.7711,5.23682
-333.301,-59.5877,-1.04246
-328.681,-55.9654,-10.6464
-321.276,-50.8396,-14.5661
-317.131,-45.5775,-15.8754
-322.096,-49.0806,-19.4719
-327.061,-55.7478,-36.3391
-321.735,-48.065,-36.0333
-320.142,-52.4185,-9.95812
-326.42,-60.8762,-17.5174
-322.105,-55.1226,-29.1047
-316.203,-50.2013,-31.8165
-317.931,-48.1915,-39.4933
-317.573,-58.7408,0.079669
-318.675,-55.1921,-4.99879
-317.914,-56.1593,-8.46364
-320.652,-58.3809,-13.0481
-323.408,-69.4462,-23.4911
-316.852,-58.5301,-26.4898
-319.27,-57.6631,-36.507
-311.899,-54.1897,-6.20752
-314.872,-61.045,-13.8687
-313.868,-61.432,-21.5096
-316.073,-60.1314,-38.2922
-311.083,-57.5381,-37.9767
-309.434,-63.9564,-1.91582
-309.89,-63.7289,-10.8531
-311.544,-60.7556,-25.9528
-309.321,-52.92,-27.2288
-306.454,-53.4288,-37.6575
-304.488,-62.0175,-10.4493
-303.073,-51.8968,-13.979
-303.31,-58.6193,-16.221
-304.621,-53.2629,-22.2181
-305.971,-53.59,-24.784
-309.129,-72.9743,-37.9485
-304.515,-56.64,-35.1247
-303.796,-55.7385,-36.9751
-302.105,-58.7119,-4.14621
-301.976,-55.4835,-14.2111
-301.58,-61.3876,-15.9172
-301.504,-54.7135,-22.4829
-301,-55.6895,-28.1126
-301.844,-55.9569,-32.6617
-297.113,-56.4369,-3.71572
-298.05,-66.2684,-4.08552
-295.777,-67.7159,-7.9863
-299.188,-62.0184,-13.5662
-298.156,-60.9918,-23.557
-299.081,-58.9308,-25.6607
-296.205,-59.3774,-33.9291
-294.403,-64.5098,-11.341
-292.942,-58.2039,-15.8415
-294.76,-59.2967,-20.4568
-288.867,-71.9291,-27.9521
-295.119,-58.73,-31.3447
-290.034,-66.7837,-40.545
-293.428,-49.0796,-33.0318
-294.718,-52.3835,-40.0297
-288.334,-62.2772,-5.37861
-283.889,-74.5216,-5.5542
-280.194,-80.4938,-9.00889
-284.267,-80.7387,-17.6938
-289.174,-58.4067,-25.5746
-289.067,-56.5852,-31.494
-291.9,-54.3818,-31.1535
-288.803,-60.3573,-43.7902
-290.217,-53.358,-40.6927
-282.897,-63.2306,-9.94922
-284.655,-59.4611,-15.3008
-283.318,-59.492,-18.5402
-287.407,-56.8539,-21.2778
-288.482,-52.9366,-25.392
-286.632,-58.9106,-28.7213
-282.931,-59.7433,-36.6438
-283.954,-59.7759,-41.1621
-287.115,-53.782,-43.8426
-278.627,-64.6385,-4.36974
-280.065,-59.1297,-10.3775
-283.26,-56.1543,-16.902
-277.959,-60.9815,-22.1659
-281.085,-55.3381,-25.9904
-279.97,-55.0882,-30.6845
-275.768,-64.1365,-40.8298
-277.078,-60.1574,-43.5065
-272.446,-63.3064,-9.53467
-276.129,-60.254,-13.3012
-269.966,-68.925,-20.7354
-277.663,-57.9605,-23.8339
-280.783,-52.763,-28.156
-272.523,-63.2311,-40.0527
-273.429,-58.3484,-45.1462
-278.297,-50.0366,-44.8415
-269.604,-61.4796,-13.1788
-266.906,-59.9925,-16.2493
-270.354,-58.4724,-23.3563
-273.094,-56.6982,-25.9274
-277.953,-50.3896,-30.6135
-275.625,-48.0044,-31.4514
-259.05,-57.8577,-7.36898
-257.589,-58.7892,-12.1807
-263.158,-59.154,-20.5109
-264.768,-58.0527,-23.3586
-264.685,-59.0387,-31.1817
-269.416,-54.0574,-31.0493
-273.084,-45.3249,-32.0939
-273.489,-49.132,-42.2864
-271.257,-47.7806,-45.1164
-260.898,-54.5065,-7.28995
-259.234,-52.6403,-12.1196
-263.21,-52.9253,-16.771
-265.971,-48.1044,-21.9219
-255.18,-54.2158,-27.7835
-269.942,-43.9873,-29.7713
-272.611,-43.5892,-38.0899
-246.151,-58.3581,-12.7104
-252.862,-50.7027,-24.4086
-250.739,-49.4786,-30.9598
-269.411,-41.5759,-35.0081
-266.661,-44.5548,-42.6714
-238.263,-53.5805,-13.8772
-244.248,-52.1443,-19.3455
-248.887,-46.1057,-23.2078
-253.805,-44.8228,-31.8115
-255.733,-41.1297,-42.4978
-265.977,-38.6037,-39.4274
-236.779,-48.988,-20.5785
-235.598,-45.3328,-25.7548
-247.802,-40.941,-30.5906
-254.807,-38.1422,-33.5031
-258.859,-34.8495,-38.4901
-260.592,-36.3675,-39.8357
-240.515,-39.302,-7.80623
-243.822,-35.1086,-14.7362
-243.635,-39.1019,-20.5228
-240.875,-35.7104,-28.0391
-253.897,-34.1374,-30.4543
-251.886,-33.3138,-35.5689
-256.257,-31.9444,-38.9978
-248.658,-34.1782,-46.5126
-239.054,-28.9218,-17.9398
-246.514,-31.634,-23.0055
-239.537,-30.5761,-33.6235
-250.592,-27.9699,-35.574
-253.62,-29.2131,-40.3917
-254.569,-26.7148,-44.5841
-236.476,-21.4545,-16.3903
-233.482,-27.914,-28.3334
-253.489,-25.4742,-26.0687
-251.077,-25.5492,-31.5577
-250.49,-22.5706,-41.4231
-234.03,-15.0508,-15.2846
-233.499,-16.4675,-16.361
-252.585,-18.4146,-23.4143
-239.477,-19.3258,-34.8866
-238.893,-20.8411,-39.1136
-249.695,-17.5346,-40.3194
-251.649,-16.6283,-46.0544
-235.84,-11.6196,-12.4721
-234.357,-11.7166,-17.7326
-250.883,-14.1815,-24.4785
-237.136,-12.9113,-33.4484
-239.659,-13.2198,-38.9338
-249.117,-13.8029,-39.4812
-257.126,-16.0037,-47.3814
-234.941,-2.19728,-7.17826
-228.63,-0.626601,-13.9984
-252.21,-7.03958,-19.2979
-249.771,-5.95075,-21.7403
-245.83,-9.54288,-33.8501
-248.756,-9.15279,-39.1106
-260.996,-10.3925,-47.1022
-236.21,5.71335,-14.1873
-251.262,-1.24181,-18.9755
-229.723,1.54515,-24.8244
-231.629,0.997464,-34.144
-248.7,-3.8518,-37.4923
-258.972,-4.96797,-36.942
-242.794,11.0138,-4.89021
-242.797,4.29304,-13.2532
-253.378,2.2403,-16.537
-236.772,7.11774,-24.9674
-248.567,7.23233,-32.2562
-259.185,-0.14935,-30.2903
-261.5,-1.18164,-37.5843
-251.924,4.98992,-47.2579
-262.747,-4.42555,-45.1521
-243.249,15.1002,-0.390715
-235.168,20.8258,-4.81761
-255.113,4.85481,-13.6298
-241.297,12.7665,-21.9979
-259.91,3.61956,-24.45
-260.443,1.78685,-28.9651
-255.363,6.84186,-34.5238
-256.022,3.99469,-40.3496
-257.827,6.97806,-45.7104
-246.647,18.047,1.39079
-249.157,23.1125,-4.27159
-258.18,9.41238,-10.3423
-251.54,13.9167,-25.2129
-259.677,11.5752,-30.0047
-256.13,13.8066,-38.1039
-259.09,10.8763,-44.0409
-262.373,16.1584,9.53954
-249.079,29.4756,10.016
-252.173,22.1858,2.05622
-262.473,14.268,-6.78413
-261.768,15.0407,-14.9531
-264.459,15.4585,-15.9987
-257.496,22.0814,-23.0989
-262.646,12.5891,-34.8742
-261.752,16.2921,-41.508
-266.285,13.8971,-43.874
-261.737,25.8062,6.26878
-267.028,17.8962,-3.72992
-265.812,24.4297,-7.30854
-263.746,20.5927,-9.76828
-257.629,28.4601,-19.1711
-261.444,25.4248,-22.5249
-263.813,20.3334,-39.6843
-269.693,29.3788,3.53344
-270.586,19.4974,-2.16641
-269.051,23.4782,-7.3683
-268.759,30.3355,-13.3534
-268.624,29.8984,-20.8148
-269.086,26.0013,-27.2848
-268.746,22.6837,-37.3729
-268.878,20.7517,-43.4
-278.27,12.7283,-41.8003
-272.352,28.6768,11.6045
-275.671,30.2241,6.64755
-275.135,22.1909,-1.40232
-272.604,32.5273,-6.53637
-269.326,34.5412,-13.8067
-269.267,35.7603,-18.7503
-274.507,33.7508,-25.3876
-271.604,28.8015,-32.218
-278.578,17.3955,-35.567
-284.078,22.4688,13.5746
-279.147,27.1209,12.919
-281.843,30.984,6.53706
-279.884,27.4678,-1.04601
-276.67,37.1018,-10.7111
-275.695,34.2202,-18.0003
-281.828,27.158,-21.3891
-280.078,23.2709,-27.3523
-283.165,29.8886,9.58211
-284.396,36.7467,5.67079
-283.643,31.6507,-0.748428
-284.391,37.5198,-7.02816
-285.691,31.6158,-11.7111
-279.6,40.0672,-17.2482
-280.691,43.3646,-29.2121
-283.352,47.8725,-36.3403
-281.169,42.9216,-39.8038
-289.636,23.8987,13.2128
-290.531,35.84,11.2016
-289.669,34.1695,7.05238
-288.373,35.278,-0.250929
-290.28,34.8171,-3.69242
-290.509,49.3083,-10.351
-288.687,44.4516,-15.6031
-285.846,48.2517,-25.7387
-286.536,49.2221,-33.7534
-296.13,28.8231,11.3445
-296.75,37.1239,7.58359
-298.037,40.0521,1.05644
-293.527,44.3945,-8.50462
-293.34,45.6354,-13.1711
-294.571,49.0249,-18.9145
-295.16,51.664,-23.7355
-295.596,57.1421,-36.4851
-300.803,32.3647,10.4846
-301.167,36.6718,10.128
-301.921,41.233,0.832444
-300.162,39.4637,-6.12455
-301.705,52.3885,-10.5329
-302.983,52.6974,-16.3186
-302.466,54.08,-23.6801
-301.986,58.9897,-35.7044
-307.387,34.2064,11.2814
-308.766,39.6234,9.75987
-310.876,40.1376,3.83534
-314.021,52.2129,-10.2626
-316.102,60.5535,-23.6923
-317.227,66.2361,-27.7063
-309.711,72.08,-36.0673
-313.659,32.302,14.0508
-317.898,37.0585,4.40973
-314.024,35.8708,1.66669
-319.643,60.8527,-8.09803
-317.749,64.1684,-16.1793
-321.109,65.0813,-27.1302
-319.276,36.9776,5.24578
-329.092,47.556,5.22848
-322.242,46.1997,-3.23723
-329.014,54.0995,-9.29646
-329.319,56.8164,-18.108
-328.688,62.525,-31.2594
-323.557,27.3996,18.4986
-330.534,38.8514,15.0602
-331.384,36.5179,6.6885
-332.414,46.3738,2.8964
-334.097,52.9713,-6.08244
-336.264,57.3644,-11.5154
-339.923,59.6374,-18.2393
-332.56,28.5786,11.6654
-348.244,48.6724,-2.16098
-346.014,46.6516,-9.62243
-343.291,42.3427,-22.796
-343.847,45.2132,-30.2701
-336.425,29.8317,13.2172
-343.474,28.8215,6.80935
-342.949,29.6729,1.40713
-340.508,26.7319,-8.10234
-347.052,35.7198,-10.8622
-342.206,26.7155,-20.8383
-338.853,29.6601,-26.334
-347.701,38.5323,-32.241
-340.075,17.9434,18.2727
-341.757,20.947,13.3891
-342.175,22.7184,7.23433
-343.319,22.6359,-1.22727
-344.359,26.1432,-8.06359
-346.835,26.649,-15.2119
-347.358,23.6666,-18.3698
-348.423,23.3562,-23.866
-348.758,28.1497,-31.1855
-347.927,19.7147,18.6755
-348.889,17.9803,5.52481
-349.875,19.9291,3.30596
-346.305,14.9593,-3.25945
-347.921,21.3825,-12.4121
-347.915,22.5001,-20.6563
-352.751,18.8993,-25.5213
-347.195,16.4301,-31.9683
-346.305,7.73048,11.0759
-355.516,15.3551,6.76377
-351.322,10.6808,-0.103705
-352.017,12.4859,-2.36648
-346.89,7.07777,-11.7251
-347.03,12.263,-20.5586
-347.062,9.51673,-22.6756
-348.317,9.94649,-32.9328
-351.442,3.502,12.9116
-346.296,2.22283,2.43931
-355.974,9.86784,-0.675
-348.127,6.2347,-8.45294
-344.324,-0.163412,-14.4947
-351.535,3.09254,-17.2529
-349.804,4.31553,-28.7294
-344.112,-5.30995,15.2389
-344.176,-5.46089,11.8206
-345.243,-0.777655,1.03324
-356.096,1.82382,-4.55943
-353.157,-3.67691,-13.717
-347.992,-0.61938,-17.615
-348.519,-1.71964,-22.9097
-346.724,-11.0408,8.80623
-347.543,-9.53295,2.89322
-344.191,-11.1207,-3.54708
-351.821,-9.76032,-4.81284
-347.259,-8.66639,-10.9972
-345.167,-9.8789,-19.3249
-344.592,-11.2243,-22.3905
-348.817,-6.29643,-31.0929
-346.735,-11.3135,15.543
-352.828,-11.4215,15.803
-344.692,-13.7813,0.45823
-346.245,-13.0844,-4.42597
-365.052,-12.3327,-6.56988
-354.896,-12.1938,-16.8303
-346.67,-11.1837,-23.0121
-341.958,-19.2422,13.6176
-347.024,-16.2569,8.87923
-345.374,-20.8112,4.96424
-345.384,-21.0064,-16.0758
-349.64,-16.0841,-24.3742
-351.686,-20.5822,-29.1973
-348.92,-33.301,51.1935
-343.037,-33.6251,43.9805
-351.973,-31.7206,32.8791
-340.47,-32.3417,27.2409
-343.305,-32.4841,19.1668
-342.577,-31.9111,16.0398
-343.989,-36.9234,52.664
-353.058,-38.8348,46.8991
-352.823,-40.2086,41.9163
-350.7,-38.2255,34.619
-343.019,-38.993,26.3965
-339.692,-35.0019,21.5743
-339.469,-34.8673,16.1248
-347.168,-44.8612,49.9354
-346.119,-44.2207,38.9125
-344.272,-42.1049,32.4314
-346.979,-44.2792,24.3137
-345.503,-42.4887,19.4803
-342.875,-45.4445,12.5721
-347.851,-47.8026,48.3521
-337.832,-49.5778,31.7261
-343.209,-51.34,29.1524
-340.914,-50.1532,21.7509
-344.925,-51.7703,13.8171
-338.92,-45.0026,11.0958
-344.322,-57.3012,44.1219
-342.024,-53.3272,37.6047
-342.18,-53.502,29.7758
-341.798,-52.8527,27.2711
-334.815,-53.2763,14.608
-340.301,-52.9004,12.0882
-343.607,-60.6021,51.7238
-338.147,-56.1078,44.6212
-342.709,-65.2681,40.5071
-339.606,-58.0172,33.3041
-336.846,-61.2157,27.9481
-339.129,-58.0913,18.0776
-338.762,-57.0218,13.1853
-340.639,-64.643,49.4755
-338.88,-66.0894,42.8963
-334.768,-66.7369,36.1191
-336.934,-67.1143,30.681
-335,-61.1104,26.9255
-334.748,-62.6976,23.8821
-325.665,-58.6916,16.5259
-332.446,-60.5556,10.0323
-333.691,-71.5033,50.2755
-334.511,-68.6109,41.9845
-334.061,-72.508,36.6338
-333.655,-68.9016,29.165
-329.974,-68.97,23.5487
-328.442,-65.2771,15.1517
-332.979,-67.0554,8.72622
-331.755,-81.1089,49.0918
-323.165,-71.1798,38.5946
-319.918,-61.8417,30.547
-330.109,-72.4071,28.1685
-322.695,-69.1198,15.2407
-322.805,-65.4105,9.09701
-317.835,-63.9587,5.84073
-323.529,-74.2934,49.3469
-317.493,-71.963,42.6195
-322.223,-72.2864,38.7531
-323.736,-81.1278,27.579
-318.745,-67.3534,9.49079
-315.383,-64.4493,3.25453
-314.223,-72.395,43.3373
-315.685,-78.9474,37.6499
-319.898,-87.3522,29.8645
-314.146,-69.3103,3.72561
-308.804,-59.2797,2.92924
-306.894,-67.5196,45.2695
-307.434,-74.1991,41.7349
-311.084,-75.902,39.8375
-311.296,-74.0266,34.3933
-310.865,-72.3286,27.4033
-309.983,-71.4696,22.2848
-308.474,-70.2611,16.192
-307.545,-69.6039,12.6185
-305.045,-67.9734,7.12219
-303.461,-75.0767,47.8266
-307.64,-83.001,42.9452
-306.385,-80.6882,38.2052
-303.776,-74.0947,34.4572
-305.808,-74.3628,28.0848
-300.956,-67.2208,18.4891
-302.225,-64.5162,16.6488
-302.076,-62.1406,8.36068
-302.145,-60.511,3.45111
-300.478,-86.2627,48.8562
-297.651,-76.8822,42.9347
-301.025,-81.2275,38.2782
-301.041,-73.1977,29.9889
-300.406,-77.0695,25.8525
-298.756,-70.8424,23.9967
-299.854,-70.4757,4.45328
-294.022,-75.52,40.0088
-295.018,-81.7816,38.8783
-296.748,-73.1914,30.0615
-292.599,-67.6059,29.3768
-296.644,-72.3182,24.392
-295.387,-73.4356,11.9481
-295.574,-71.8953,10.6556
-296.761,-70.2162,5.44375
-290.772,-75.397,49.2515
-288.349,-75.1676,44.4403
-287.91,-77.2988,36.0619
-292.337,-77.4943,33.2078
-289.227,-76.1536,26.2477
-291.773,-78.8507,21.1756
-290.882,-71.797,19.3584
-292.196,-75.2847,12.4195
-290.385,-70.44,4.43421
-292,-61.1752,4.70936
-284.565,-74.1524,47.3791
-286.41,-79.7305,40.6738
-285.142,-69.9694,37.46
-286.727,-77.5035,34.5373
-286.582,-74.5386,29.0746
-284.808,-77.4503,21.942
-286.242,-71.3629,16.5697
-285.61,-66.0428,17.3702
-284.266,-68.6257,8.10511
-285.465,-69.3979,4.32838
-285.839,-73.5269,-2.93812
-278.647,-77.0287,43.8405
-278.26,-75.5821,34.7986
-278.021,-75.8086,30.1584
-281.348,-75.9863,25.137
-280.929,-73.0702,24.5407
-279.367,-73.2638,16.3998
-282.742,-70.3138,12.517
-281.359,-75.1101,7.98027
-282.943,-68.0146,3.51161
-277.567,-70.815,47.5243
-276.294,-77.0244,41.6447
-276.147,-77.2069,36.727
-275.432,-74.7263,32.5935
-277.687,-70.6041,29.5483
-277.476,-73.1642,23.1613
-277.44,-70.234,19.5706
-277.226,-68.8155,13.2235
-277.707,-67.9474,11.0741
-277.142,-65.0109,2.09249
-280.406,-66.1625,1.14031
-268.302,-72.1036,40.6289
-271.548,-73.5989,38.0385
-262.623,-82.4284,33.0671
-267.503,-73.9395,26.5365
-274.33,-69.51,22.5247
-268.812,-72.7916,17.638
-269.538,-70.9301,13.5647
-271.899,-66.9824,9.89906
-274.92,-67.0229,3.10349
-264.604,-69.4336,40.9284
-264.617,-77.1385,35.8561
-263.782,-75.3704,34.6912
-268.428,-67.9854,29.0885
-262.329,-80.0604,17.7705
-268.741,-67.6428,15.1213
-262.383,-74.1758,9.63405
-269.592,-66.5524,8.5373
-269.292,-65.1891,2.79182
-264.955,-63.6336,36.0413
-255.868,-74.088,24.4978
-258.189,-72.3649,18.5549
-254.803,-75.1753,14.2849
-266.92,-62.4256,13.5011
-266.961,-64.4052,4.70208
-263.386,-65.0066,1.88357
-261.822,-61.2641,25.2847
-249.307,-71.3534,10.4026
-253.811,-69.3925,10.148
-257.634,-67.5477,3.81241
-264.772,-58.6844,3.46016
-251.841,-65.3107,17.3861
-255.185,-59.3548,11.7141
-247.943,-65.5403,1.49109
-256.461,-59.2595,0.745649
-251.494,-58.9908,5.06877
-248.047,10.5631,8.46805
-248.163,14.8057,12.7112
-251.511,12.0938,8.4975
-254.896,16.6418,24.9406
-255.067,18.8931,17.6629
-254.068,17.9489,13.4389
-256.967,13.4904,8.44305
-261.748,16.0295,41.0095
-255.94,23.1753,30.9508
-261.107,22.3168,24.1382
-261.045,18.8948,22.9191
-260.12,18.6046,12.0225
-267.075,15.0842,45.7936
-263.927,24.6126,40.9486
-267.611,24.9302,34.6049
-262.376,23.4277,23.9521
-269.01,21.9408,20.7093
-266.242,24.1604,16.6447
-270.379,19.8609,12.0276
-276.486,18.9238,53.2082
-273.152,23.5913,50.0411
-275.027,22.1671,46.9999
-271.239,23.2677,40.4238
-271.586,26.3256,33.5657
-272.78,30.5112,29.5448
-272.41,22.241,18.2726
-270.446,26.365,15.5902
-277.846,17.3424,52.4855
-277.178,18.6109,49.1753
-278.79,21.5049,43.7314
-280.476,26.0863,36.2249
-276.806,25.4731,35.6066
-278.387,23.937,24.6567
-275.04,24.8201,22.0954
-276.371,22.0068,13.4035
-287.082,19.7624,54.3388
-286.735,22.6403,49.4424
-282.036,23.5327,41.3823
-283.072,23.7614,37.2431
-282.274,24.158,31.8863
-285.35,23.6068,28.552
-281.785,31.0076,18.032
-287.942,21.8669,53.9251
-288.052,21.019,49.6499
-292.408,19.7823,41.0098
-289.224,26.6889,35.9086
-287.64,23.6586,33.6169
-292.394,30.5129,23.3866
-288.739,34.2361,17.2723
-295.817,16.5111,54.5822
-294.556,17.8755,46.7798
-292.798,24.3619,43.7265
-295.28,22.1847,38.942
-293.771,24.7442,33.3243
-295.829,37.7142,27.4909
-295.806,33.8048,22.9345
-300.267,16.2466,55.022
-300.424,19.6974,48.6824
-299.909,26.9161,41.987
-302.447,29.2663,38.8946
-303.905,28.2112,32.8748
-300.28,33.3645,26.8374
-306.586,19.0192,54.0679
-309.235,22.1736,49.901
-304.796,28.2438,46.2044
-307.466,31.8328,42.1046
-310.114,29.628,31.5679
-308.406,36.0872,24.963
-313.464,28.4953,57.7479
-315.559,24.48,44.3968
-314.476,27.4142,38.1687
-314.814,29.1527,33.6798
-317.5,36.5054,24.6109
-314.322,33.6484,20.5258
-316.446,24.2646,56.4664
-315.662,21.6198,49.645
-322.648,24.7298,49.0417
-320.376,26.3338,41.6443
-319.337,30.0306,32.3187
-325.79,33.5225,28.0321
-323.411,21.5894,52.4889
-325.735,22.1985,47.4533
-326.42,26.0465,41.7071
-329.625,27.5069,31.3787
-327.075,28.7125,25.8444
-329.849,17.2065,56.4838
-333.424,18.5662,54.6038
-332.989,16.4293,47.8418
-332.18,20.1061,40.5847
-332.488,23.3399,34.8001
-334.324,19.9897,26.7606
-336.397,10.3173,57.1439
-332.978,12.9451,52.5051
-336.763,14.8007,43.6954
-337.57,14.1009,41.9542
-340.923,14.3385,35.4637
-339.237,14.4811,23.3208
-342.562,18.334,22.0572
-341.397,10.8039,54.5822
-342.367,8.86638,49.9478
-341.139,9.43016,37.2361
-341.893,9.90268,35.6646
-342.776,14.4984,25.1873
-350.89,6.67164,53.7149
-343.049,-0.149201,43.8981
-341.594,4.5138,39.2035
-345.428,3.21054,30.803
-343.146,6.92004,29.4388
-347.066,4.44223,21.5805
-343.181,-2.49995,50.2314
-344.725,-5.93396,43.5004
-347.832,-3.94523,36.2029
-344.795,-2.05632,35.5033
-347.181,-1.66103,29.4164
-355.892,-0.314002,21.5303
-346.072,-10.6204,55.2738
-346.317,-9.45525,50.169
-351.779,-5.24133,48.3152
-345.598,-8.37914,38.982
-349.084,-4.4174,31.5746
-343.784,-10.5723,24.5038
-345.623,-14.4655,49.4668
-345.035,-15.7925,41.3255
-347.128,-15.4316,37.672
-343.899,-16.2014,32.4939
-352.318,-12.4995,27.8799
-348.175,-22.0169,53.7571
-344.943,-19.8389,41.1721
-342.984,-21.4084,38.6928
-351.79,-21.6055,31.0688
-340.6,-19.5708,29.2864
-350.255,-18.1969,20.6436
-341.493,-21.6623,17.8318
-355.084,-28.9053,51.6562
-343.355,-25.9875,38.7278
-341.71,-25.9062,34.608
-346.283,-27.5586,29.1161
-314.146,-34.6966,130.97
-319.1,-35.1283,125.033
-319.591,-32.9001,122.453
-321.269,-33.7753,115.835
-336.172,-36.2354,119.048
-336.537,-35.7447,105.747
-341.899,-35.478,103.483
-346.657,-36.2257,99.1526
-347.885,-37.9983,93.1365
-348.861,-36.3966,82.9425
-348.948,-38.3506,78.452
-356.576,-36.9119,71.72
-353.379,-34.0252,65.8572
-354.847,-35.3176,59.1481
-316.496,-37.3924,130.224
-320.759,-36.166,122.207
-323.742,-37.5529,115.391
-332.34,-40.139,106.783
-340.352,-41.3195,105.33
-349.026,-39.9859,104.988
-345.576,-40.3213,99.2595
-350.009,-40.4964,88.7348
-344.972,-42.199,84.3141
-342.78,-43.0282,76.2137
-343.874,-42.2625,72.8854
-344.663,-39.4808,65.9463
-298.175,-34.6174,122.39
-301.4,-35.3411,124.524
-313.351,-40.0166,123.16
-317.497,-41.0461,117.816
-319.356,-39.7631,116.232
-324.947,-40.257,113.677
-338.326,-44.0679,112.853
-337.513,-47.8556,105.324
-344.813,-48.696,103.097
-346.281,-46.141,94.9704
-342.202,-47.527,89.6167
-353.258,-47.1117,83.6532
-342.264,-43.8022,81.2935
-351.162,-49.078,70.9303
-343.58,-49.3381,64.6815
-351.539,-47.1835,58.8115
-347.726,-51.1298,55.0345
-314.626,-42.2237,116.782
-320.119,-43.0004,112.145
-325.427,-44.4007,112.678
-327.657,-45.4761,108.473
-339.014,-50.644,111.439
-335.651,-51.6045,103.85
-340.532,-52.7558,93.5305
-347.35,-52.3983,87.3332
-349.107,-56.159,79.4955
-353.234,-53.1086,70.7255
-348.996,-54.7115,65.6985
-341.796,-53.3966,62.5324
-344.822,-52.3821,54.6102
-299.422,-37.4676,117.189
-308.154,-40.6303,131.51
-313.742,-44.2862,131.201
-312.104,-43.9692,111.171
-321.852,-49.9023,116.803
-324.756,-48.8584,109.824
-329.463,-54.4796,115.773
-339.208,-55.2374,114.435
-334.059,-55.509,101.77
-338.396,-56.2248,93.6009
-334.576,-55.6177,86.917
-342.485,-59.9582,87.3125
-348.828,-60.2424,74.7883
-340.898,-61.362,66.8239
-346.513,-59.4424,55.9628
-339.603,-57.9967,55.8214
-308.593,-43.159,122.488
-312.494,-48.187,118.376
-321.718,-53.5194,118.143
-320.586,-53.2515,110.404
-322.526,-53.3583,109.644
-332.826,-61.5784,109.324
-320.159,-53.4673,93.7976
-337.762,-65.7697,96.8392
-334.626,-61.5622,87.6936
-341.373,-66.2039,83.6854
-319.669,-49.5934,79.3465
-340.598,-62.288,71.132
-343.82,-69.049,65.105
-340.196,-62.8039,60.7703
-339.956,-64.1832,54.1746
-307.058,-45.4509,117.028
-317.173,-55.7602,124.838
-328.967,-63.4136,120.099
-328.228,-65.5849,113.083
-332.816,-68.5689,113.821
-334.341,-64.9431,105.817
-333.844,-64.3291,95.3282
-334.827,-67.3847,89.4498
-334.824,-70.8918,87.9872
-336.64,-68.2731,79.8811
-344.476,-72.0181,74.8766
-343.066,-78.2851,68.1754
-295.666,-37.9891,120.084
-301.609,-43.3289,132.159
-303.905,-46.8689,121.393
-305.86,-48.5426,118.456
-317.24,-57.454,109.707
-319.19,-59.7821,108.688
-327.959,-68.308,100.322
-325.821,-71.1113,97.1741
-333.39,-74.6175,89.7458
-328.24,-72.9623,84.9955
-329.701,-73.5286,80.0254
-330.788,-76.2636,74.2599
-330.685,-76.9256,58.1736
-335.897,-79.204,53.9901
-295.918,-39.4977,122.952
-298.908,-42.3582,122.882
-305.797,-49.4955,115.22
-308.184,-53.1581,116.892
-316.811,-65.2526,129.134
-312.864,-60.3632,108.61
-312.318,-61.6792,105.477
-316.085,-65.2275,101.181
-319.234,-68.1518,98.0606
-322.8,-71.7587,93.3849
-325.349,-72.9587,90.4138
-336.923,-86.8791,77.0045
-331.256,-78.6596,71.4086
-326.388,-81.084,65.143
-327.098,-76.2271,58.385
-329.122,-79.6823,55.7314
-296.264,-40.8567,118.436
-300.179,-47.8189,116.531
-301.179,-50.0675,120.805
-308.911,-59.409,123.001
-311.461,-61.5676,107.656
-313.457,-68.1485,105.832
-318.861,-78.8263,102.025
-319.357,-79.1924,96.7795
-324.704,-86.8431,86.0177
-326.72,-88.4508,70.0888
-319.162,-81.6964,70.0151
-326.677,-91.1414,56.3994
-303.583,-55.017,131.141
-301.632,-51.7253,111.88
-310.669,-67.6049,126.358
-311.448,-70.3185,112.281
-309.768,-71.5113,103.154
-312.276,-75.7317,101.623
-317.092,-80.8361,97.1893
-316.094,-83.4191,90.2408
-316.002,-85.5629,83.3427
-315.284,-86.2279,77.5041
-316.333,-89.8131,71.6834
-312.668,-81.2409,61.8007
-310.402,-76.1002,53.5805
-295.289,-43.1033,115.518
-297.529,-48.3623,121.313
-298.471,-54.6787,120.537
-301.423,-58.5365,114.296
-302.585,-67.6568,118.635
-303.039,-66.0504,109.639
-305.352,-75.04,111.763
-304.949,-74.1779,107.548
-308.14,-77.22,97.5416
-310.768,-80.7717,98.9644
-311.299,-87.4611,89.9848
-309.725,-84.7422,83.8708
-314.515,-87.5786,77.3932
-314.988,-87.9021,73.6869
-307.703,-79.222,67.3721
-309.79,-78.4422,61.4571
-304.766,-74.5376,57.3884
-308.133,-73.0628,51.4684
-293.678,-42.3035,120.815
-296.367,-51.4859,128.959
-296.844,-56.4202,119.429
-297.325,-61.0749,118.427
-299.421,-65.1054,118.351
-300.613,-64.0696,110.84
-301.188,-68.6779,106.508
-300.386,-69.6307,102.86
-300.147,-71.7911,97.8289
-299.874,-74.3078,93.5795
-302.539,-87.4146,88.1015
-305.671,-87.4775,87.6824
-301.259,-81.096,78.8992
-305.138,-79.7713,72.928
-301.033,-78.1444,70.7304
-302.493,-76.5922,64.6237
-308.707,-94.189,51.8526
-292.909,-47.2798,115.589
-294.983,-54.052,110.101
-295.887,-62.9837,111.792
-295.761,-62.0462,107.574
-297.486,-84.3682,115.427
-299.4,-78.9504,108.09
-298.155,-79.4796,99.4117
-297.76,-78.749,95.3603
-299.534,-77.615,88.3734
-299.513,-78.9717,84.2832
-299.879,-79.4636,78.0417
-298.727,-80.9615,74.0507
-302.332,-94.6355,65.7765
-298.767,-91.6331,61.1175
-292.213,-46.9138,132.174
-291.997,-66.861,129.349
-294,-63.102,113.392
-294.733,-74.3835,105.065
-292.392,-79.6609,99.2195
-294.948,-79.4257,92.8764
-294.504,-82.3576,87.1244
-295.386,-82.2954,81.7805
-296.074,-82.7236,79.642
-294.679,-82.4133,75.9285
-292.719,-81.9463,70.0361
-291.038,-74.7376,57.4302
-295.984,-85.1254,50.5566
-290.691,-46.017,122.595
-290.716,-47.5565,121.001
-289.362,-51.2733,114.863
-288.299,-58.8821,113.518
-289.175,-60.4594,111.546
-288.141,-66.5318,113.541
-290.422,-70.8223,108.342
-286.528,-77.6254,102.537
-288.589,-79.9259,99.4224
-286.406,-83.9255,96.6999
-289.791,-80.7937,89.7444
-284.737,-93.6309,80.056
-290.071,-82.973,66.159
-286.423,-79.0332,63.1293
-287.534,-74.659,56.5475
-288.522,-50.1195,113.812
-283.42,-68.7568,120.8
-282.993,-71.9877,116.207
-285.309,-73.9478,103.211
-283.405,-80.0932,100.079
-283.436,-82.9516,94.9609
-282.667,-83.7024,87.5824
-283.344,-80.7201,85.4817
-284.305,-84.8675,78.2964
-284.127,-86.4635,70.9929
-284.618,-80.3947,66.2186
-282.194,-74.8626,66.7862
-283.36,-92.5119,56.343
-281.38,-82.5982,48.995
-284.042,-56.246,119.218
-283.629,-55.7235,113.263
-282.329,-64.838,109.346
-280.67,-75.4736,104.311
-279.478,-79.6016,100.049
-278.372,-84.0258,97.6276
-280.061,-83.5422,83.3683
-275.576,-82.3375,77.9918
-277.117,-75.7002,74.7978
-281.333,-77.8561,66.6091
-278.633,-74.0648,64.1731
-279.957,-73.9069,58.6461
-281.878,-73.7938,52.4356
-284.977,-49.2159,131.86
-283.561,-53.9456,120.941
-281.272,-56.1469,114.531
-279.944,-61.586,116.766
-277.087,-65.4019,114.013
-275.843,-67.2538,106.116
-277.111,-74.0026,105.361
-275.908,-74.5881,101.441
-270.534,-80.6945,98.0909
-273.418,-86.4817,89.5147
-273.115,-73.1691,81.2141
-274.267,-73.238,76.7951
-270.532,-82.0227,72.5757
-276.503,-73.5314,70.9313
-276.806,-76.0121,57.8534
-273.169,-78.3569,49.9916
-285.26,-44.2714,128.388
-278.656,-58.7273,111.292
-274.889,-64.4901,113.511
-272.135,-67.8825,107.988
-272.258,-70.2966,102.624
-272.441,-71.8934,97.8104
-272.551,-73.1226,91.8532
-272.673,-73.1451,87.4288
-269.734,-76.591,84.81
-268.499,-77.3208,79.0985
-267.871,-80.2706,74.7758
-270.292,-78.6295,65.3537
-272.079,-72.5371,58.3218
-276.734,-55.9246,113.862
-273.37,-62.7789,115.601
-273.092,-60.4022,111.038
-271.562,-63.3667,107.575
-270.451,-68.1392,101.587
-282.178,-44.238,117.116
-275.917,-52.4526,131.153
-274.133,-52.518,110.097
-283.893,-39.9778,121.163
-270.326,-54.3234,130.482
-279.388,-41.352,127.111
-275.884,-43.7363,116.815
-271.898,-44.7054,131.175
-276.39,-39.8367,127.066
-271.02,-42.8635,127.035
-271.966,-41.3862,115.861
-276.072,-37.6806,123.515
-277.886,-35.74,121.051
-276.047,-36.0526,122.303
-272.517,-37.9605,116.057
-282.572,-34.5123,135.649
-282.692,-33.5038,123.419
-279.881,-33.4445,120.162
-277.167,-32.9839,117.362
-284.622,-31.5494,116.347
-278.433,-30.4145,110.895
-281.725,-30.1158,110.432
-276.928,-28.2809,109.103
-275.421,-27.3962,116.027
-276.922,-27.2321,108.426
-284.265,-29.3759,111.28
-277.318,-25.8094,107.023
-285.023,-29.3351,122.063
-277.595,-24.2607,106.04
-285.29,-28.5363,109.821
-277.405,-22.2115,105.061
-286.377,-28.5308,117.825
-283.479,-26.1166,117.946
-276.79,-19.85,104.469
-275.239,-16.4866,103.333
-273.574,-14.1689,101.927
-284.98,-24.8551,122.789
-284.872,-25.3628,107.479
-286.94,-26.7548,117.962
-280.113,-16.6257,116.265
-277.459,-11.9684,104.564
-275.711,-9.07569,101.597
-276.06,-8.53502,100.614
-284.76,-21.7253,109.13
-280.89,-14.4335,108.322
-277.734,-7.23119,93.1243
-275.62,-5.72805,89.8464
-276.046,-0.59236,80.4969
-275.61,-0.640704,78.1639
-288.902,-27.7707,112.124
-285.802,-19.1404,112.025
-284.232,-15.2434,110.553
-283.027,-9.59879,104.405
-279.043,1.23159,92.696
-279.405,0.403972,90.1481
-280.67,-1.85735,84.1274
-279.15,-0.379133,82.1426
-278.85,2.56754,76.6707
-277.899,2.6104,75.6577
-276.817,8.66148,62.132
-286.163,-16.0108,111.975
-286.246,-15.2971,103.684
-283.856,-8.97311,98.7368
-285.034,-6.83916,96.4837
-284.015,-3.69868,93.1073
-281.54,-3.25978,89.1506
-283.647,-0.570832,84.6103
-283.74,-1.57959,80.6484
-280.362,3.50711,76.1587
-281.146,2.73973,73.0039
-278.559,8.58114,69.9994
-277.901,11.9968,65.386
-277.634,17.3993,58.9798
-286.357,-9.87454,94.472
-285.531,-6.33805,88.6773
-285.424,-3.63905,87.6651
-287.034,1.75396,82.2127
-284.143,1.36736,79.3368
-285.781,5.17801,73.0011
-281.501,13.508,70.0583
-284.926,13.6495,64.8794
-284.757,16.7963,57.926
-290.874,-18.4425,120.88
-290.633,-16.9449,114.613
-288.894,-10.7435,108.256
-289.389,-2.67632,93.8557
-288.831,-7.58493,90.1971
-290.169,-2.33295,88.4785
-288.496,1.90527,86.5192
-288.329,5.06633,81.9012
-288.043,4.2584,76.3797
-288.028,4.40887,74.281
-290.55,6.29091,71.8202
-288.844,15.9086,62.3654
-288.296,14.7806,59.7694
-291.723,-7.75791,93.1396
-293.637,1.14724,92.0062
-294.163,0.192789,87.7792
-293.221,6.28561,84.7311
-293.719,2.30589,81.4966
-294.219,3.04019,79.5505
-291.506,8.13193,73.2386
-293.417,9.0367,68.9775
-294.743,10.4482,65.2666
-295.657,15.0868,60.0497
-295.791,-6.37016,99.1932
-296.591,-1.49893,95.7784
-296.712,-1.97269,91.8075
-294.967,1.99254,87.4995
-297.614,6.37633,84.8227
-298.857,4.75928,80.4158
-298.183,3.6748,76.4015
-295.512,6.21223,75.9221
-298.638,14.4793,68.7995
-296.396,13.8752,63.8192
-292.741,-25.4212,111.507
-295.869,-12.7392,112.073
-298.281,-8.57605,106.356
-297.947,-6.68691,104.266
-297.413,-2.32374,99.7365
-299.043,-1.86265,91.5686
-302.515,6.95724,89.5826
-303.314,5.54184,85.9739
-303.605,8.50748,82.0333
-302.811,4.39065,76.1733
-304.289,18.5309,72.7383
-300.643,12.8418,67.5059
-308.275,21.9318,60.26
-296.114,-17.7256,117.107
-299.13,-12.1138,108.348
-300.459,-4.48175,107.244
-302.185,-1.9475,95.7363
-303.054,2.19318,92.5625
-305.475,1.99696,89.8114
-302.704,2.70593,86.2916
-303.649,6.10951,82.4352
-304.394,7.39636,80.165
-306.165,9.10745,75.1562
-306.55,14.1834,70.4989
-307.28,15.9744,64.2555
-294.565,-25.6786,117.859
-298.085,-17.9459,120.599
-300.939,-14.6957,115.229
-300.822,-15.2367,110.549
-303.471,-6.19612,113.374
-305.238,-5.82835,105.932
-305.45,-5.30328,95.3551
-307.172,1.92177,95.5713
-308.547,5.84987,91.7167
-307.901,0.237726,84.4492
-308.445,0.506601,83.7009
-314.156,10.4977,80.5496
-308.157,4.63072,75.5418
-315.312,16.2322,65.2095
-313.279,14.9289,61.6855
-298.39,-21.4566,109.831
-300.978,-15.8975,111.602
-304.969,-12.4473,115.127
-304.03,-10.2716,109.718
-308.892,-3.89892,101.861
-312.079,-0.386041,101.39
-312.319,1.8251,97.7978
-314.483,0.0202749,90.4213
-316.586,7.01417,87.4357
-310.302,-2.35767,80.2579
-320.168,11.5883,76.3478
-314.897,1.08769,72.3228
-324.078,15.9203,69.61
-318.293,9.25828,62.687
-296.15,-25.9136,118.748
-302.401,-19.4386,118.17
-303.778,-18.3909,118.313
-303.235,-17.0276,109.506
-314.804,-2.57459,105.13
-311.468,-7.42426,97.4252
-316.339,-0.977379,98.0072
-315.154,-0.744395,91.6492
-318.896,4.36159,89.044
-324.188,4.88134,86.4027
-320.882,6.96346,81.1118
-326.174,12.5776,74.7516
-324.614,5.95896,68.367
-305.28,-19.5401,120.108
-303.4,-19.8459,109.888
-309.967,-12.7795,116.719
-308.893,-15.8033,109.681
-314.682,-7.18018,108.926
-315.325,-8.3359,104.913
-315.255,-10.0183,98.6607
-319.145,-6.03292,96.1707
-322.456,-3.49327,92.9154
-323.933,-2.5631,90.4203
-329.815,5.19375,79.9291
-329.862,9.12363,65.7487
-330.874,7.4921,63.6661
-302.327,-23.4922,126.296
-302.766,-22.2495,118.111
-307.329,-20.3701,116.22
-310.739,-16.2973,106.503
-314.46,-11.9887,108.014
-313.093,-13.7142,101.137
-320.665,-7.71315,99.8669
-329.758,1.49618,93.5359
-335.906,2.42595,88.804
-332.97,0.362946,86.1087
-331.714,3.23602,81.2414
-341.626,7.53877,70.4553
-336.617,7.42425,64.4794
-336.617,8.30721,62.3979
-300.703,-27.0676,126.471
-305.117,-22.9866,116.408
-306.395,-23.28,115.491
-309.63,-19.9861,114.273
-315.168,-18.1492,113.494
-324.285,-8.61671,102.61
-328.901,-7.66673,101.728
-333.358,-7.03495,95.5272
-341.984,1.31355,91.2565
-336.965,0.201891,77.9334
-343.396,4.98725,74.6143
-341.936,-3.0777,67.9167
-343.015,0.798857,59.7481
-303.966,-25.3678,124.091
-307.594,-24.7969,112.07
-311.404,-21.2591,115.133
-318.633,-19.2664,113.404
-324.375,-17.048,111.222
-327.936,-15.3497,109.273
-327.561,-12.3693,105.841
-333.558,-9.40221,103.213
-335.936,-7.73001,88.5756
-346.365,-6.71273,88.0074
-344.287,-6.49089,80.7345
-342.785,-7.79307,75.1715
-346.24,-2.51932,66.0712
