X,Y,Z
-277.886,-35.74,121.051
-276.047,-36.0526,122.303
-272.517,-37.9605,116.057
-237.759,-43.4606,139.311
-238.025,-39.8887,121.03
-237.857,-43.9559,119.499
-298.877,-32.3497,118.78
-281.419,-33.5017,147.991
-276.249,-34.7907,144.411
-282.692,-33.5038,123.419
-279.881,-33.4445,120.162
-277.167,-32.9839,117.362
-248.077,-36.8458,138.513
-236.804,-33.8881,131.95
-233.739,-36.8601,128.734
-237.6,-34.8093,118.127
-295.292,-31.6331,121.501
-274.22,-28.8203,142.848
-284.622,-31.5494,116.347
-241.542,-26.0878,157.37
-281.725,-30.1158,110.432
-241.13,-26.7524,136.713
-235.222,-24.9562,126.677
-294.267,-30.8841,148.878
-288.368,-29.1384,132.994
-284.62,-28.6288,129.065
-286.377,-28.5308,117.825
-285.29,-28.5363,109.821
-275.421,-27.3962,116.027
-276.922,-27.2321,108.426
-263.73,-25.1263,109.765
-255.488,-24.2147,98.9975
-296.529,-29.7398,142.923
-277.042,-24.9024,144.754
-286.94,-26.7548,117.962
-288.902,-27.7707,112.124
-265.158,-19.4895,134.827
-270.655,-23.598,119.329
-252.574,-15.6349,126.629
-277.595,-24.2607,106.04
-262.661,-20.9298,104.559
-279.595,-22.36,146.921
-284.98,-24.8551,122.789
-264.177,-15.8087,132.661
-284.872,-25.3628,107.479
-268.593,-19.9788,113.166
-277.405,-22.2115,105.061
-276.79,-19.85,104.469
-265.091,-14.4594,102.605
-263.38,-17.8105,97.414
-284.236,-20.8264,149.649
-281.416,-21.1813,148.255
-292.741,-25.4212,111.507
-267.28,-10.8392,141.453
-264.495,-11.9892,140.353
-284.76,-21.7253,109.13
-274.884,-15.0946,111.839
-270.26,-14.7877,108.225
-275.239,-16.4866,103.333
-273.574,-14.1689,101.927
-265.706,-11.7358,100.069
-269.385,-11.9958,94.6781
-262.709,-7.995,89.9202
-293.586,-23.946,141.997
-294.565,-25.6786,117.859
-285.978,-20.5711,132.057
-284.304,-17.8985,118.959
-285.802,-19.1404,112.025
-280.113,-16.6257,116.265
-263.069,-2.7487,121.944
-263.664,-3.76751,118.16
-252.93,2.50183,116.492
-271.862,-12.5418,101.648
-267.684,-7.52004,96.7754
-275.887,-6.63447,144.552
-271.629,-7.44263,143.948
-286.163,-16.0108,111.975
-280.89,-14.4335,108.322
-268.466,-0.05998,114.556
-277.459,-11.9684,104.564
-276.06,-8.53502,100.614
-272.123,-8.00041,98.7052
-272.61,-6.26456,91.6702
-272.276,-4.11401,88.461
-273.32,-4.29072,79.3314
-273.121,-4.17841,77.1428
-294.742,-22.1319,152.975
-291.546,-19.9444,141.145
-286.873,-12.1951,137.565
-290.874,-18.4425,120.88
-290.633,-16.9449,114.613
-272.929,1.18994,130.625
-271.207,0.496368,118.226
-286.246,-15.2971,103.684
-283.027,-9.59879,104.405
-283.856,-8.97311,98.7368
-267.148,9.23038,102.386
-277.734,-7.23119,93.1243
-275.62,-5.72805,89.8464
-274.928,0.0429888,82.2833
-273.497,-3.65503,79.6993
-300.703,-27.0676,126.471
-285.266,-7.86877,134.18
-280.773,-3.49693,125.96
-275.838,2.28532,131.199
-288.894,-10.7435,108.256
-262.414,15.2347,122.326
-283.63,-7.42673,104.409
-272.755,4.87319,102.8
-286.357,-9.87454,94.472
-284.015,-3.69868,93.1073
-285.531,-6.33805,88.6773
-280.67,-1.85735,84.1274
-279.15,-0.379133,82.1426
-278.85,2.56754,76.6707
-301.893,-27.9306,117.476
-296.336,-17.9285,121.678
-298.39,-21.4566,109.831
-285.421,-4.42721,131.319
-286.391,-0.484772,127.694
-282.142,4.51293,118.158
-274.628,10.0126,112.023
-276.541,10.1689,101.718
-276.921,11.0327,100.294
-283.965,0.279543,94.4317
-288.831,-7.58493,90.1971
-286.625,-1.69734,86.3807
-283.74,-1.57959,80.6484
-282.465,3.56533,75.862
-303.1,-29.0931,124.951
-298.085,-17.9459,120.599
-295.869,-12.7392,112.073
-285.596,3.68716,121.568
-284.219,4.37603,119.599
-282.822,9.03075,102.976
-283.613,13.4443,97.4113
-291.723,-7.75791,93.1396
-290.169,-2.33295,88.4785
-288.496,1.90527,86.5192
-287.034,1.75396,82.2127
-288.043,4.2584,76.3797
-303.361,-28.5581,148.103
-291.152,6.64727,137.742
-287.723,7.11383,135.181
-295.791,-6.37016,99.1932
-290.896,0.75302,96.1198
-293.637,1.14724,92.0062
-294.163,0.192789,87.7792
-290.823,4.83719,85.0482
-288.329,5.06633,81.9012
-292.78,4.42254,76.7037
-290.55,6.29091,71.8202
-303.567,-28.3183,122.912
-302.327,-23.4922,126.296
-301.604,-17.7497,113.103
-300.822,-15.2367,110.549
-299.13,-12.1138,108.348
-298.281,-8.57605,106.356
-297.947,-6.68691,104.266
-297.005,-3.89518,99.5025
-296.591,-1.49893,95.7784
-296.712,-1.97269,91.8075
-294.967,1.99254,87.4995
-293.767,2.52889,83.4844
-293.719,2.30589,81.4966
-296.259,4.53502,77.9146
-293.417,9.0367,68.9775
-303.966,-25.3678,124.091
-303.527,-24.9792,121.138
-302.766,-22.2495,118.111
-302.401,-19.4386,118.17
-303.4,-19.8459,109.888
-300.301,-1.79614,126.924
-295.409,13.343,136.059
-297.333,10.0445,123.23
-300.459,-4.48175,107.244
-295.552,18.7217,118.277
-295.318,24.9738,112.761
-293.909,25.8345,108.421
-292.355,27.3281,102.367
-299.043,-1.86265,91.5686
-297.996,4.94376,90.3147
-297.614,6.37633,84.8227
-298.857,4.75928,80.4158
-298.183,3.6748,76.4015
-298.638,14.4793,68.7995
-304.123,-21.0125,121.266
-303.778,-18.3909,118.313
-303.235,-17.0276,109.506
-304.071,-7.5758,115.126
-304.03,-10.2716,109.718
-304.111,-3.09683,105.614
-302.332,1.19895,98.1372
-302.185,-1.9475,95.7363
-303.054,2.19318,92.5625
-302.515,6.95724,89.5826
-302.704,2.70593,86.2916
-303.649,6.10951,82.4352
-302.622,5.24616,78.6984
-300.643,12.8418,67.5059
-305.117,-22.9866,116.408
-306.473,-15.071,122.496
-306.002,-15.4961,110.209
-306.663,-8.41998,116.898
-305.238,-5.82835,105.932
-305.82,-1.29984,99.644
-305.45,-5.30328,95.3551
-306.238,2.85637,93.5738
-305.475,1.99696,89.8114
-307.901,0.237726,84.4492
-308.193,7.62358,81.6856
-308.157,4.63072,75.5418
-306.416,-21.5653,155.365
-306.395,-23.28,115.491
-308.545,-13.4611,122.5
-307.351,-12.8828,115.783
-308.892,-3.89892,101.861
-309.436,2.21896,93.7485
-311.114,3.33366,89.3063
-314.003,17.3064,82.9717
-308.445,0.506601,83.7009
-310.302,-2.35767,80.2579
-314.013,17.2749,63.7736
-308.353,-20.9013,130.291
-308.964,-18.2573,124.366
-307.329,-20.3701,116.22
-310.858,-12.8323,121.302
-308.893,-15.8033,109.681
-314.814,3.07468,108.084
-311.468,-7.42426,97.4252
-312.319,1.8251,97.7978
-313.669,2.11474,91.0465
-314.483,0.0202749,90.4213
-315.766,5.9829,85.7084
-314.156,10.4977,80.5496
-319.923,17.9918,69.3997
-314.897,1.08769,72.3228
-307.594,-24.7969,112.07
-309.63,-19.9861,114.273
-312.197,-12.8826,119.736
-312.097,-12.8375,118.347
-310.739,-16.2973,106.503
-314.682,-7.18018,108.926
-314.804,-2.57459,105.13
-316.152,-3.64634,100.922
-316.339,-0.977379,98.0072
-315.154,-0.744395,91.6492
-318.896,4.36159,89.044
-319.055,6.53635,83.3486
-320.882,6.96346,81.1118
-322.401,16.3673,73.728
-316.151,3.0557,73.2521
-318.293,9.25828,62.687
-307.497,-26.337,147.336
-313.805,-13.2122,154.34
-312.768,-15.7825,111.986
-314.46,-11.9887,108.014
-313.093,-13.7142,101.137
-315.255,-10.0183,98.6607
-319.145,-6.03292,96.1707
-322.153,4.02039,91.8313
-324.709,6.50704,88.9577
-324.188,4.88134,86.4027
-324.52,9.24752,78.4948
-326.174,12.5776,74.7516
-324.614,5.95896,68.367
-313.006,-19.7511,125.974
-311.404,-21.2591,115.133
-318.789,-11.0344,113.865
-320.051,-9.36557,114.228
-333.066,14.3763,118.105
-322.853,-2.63145,102.573
-320.665,-7.71315,99.8669
-324.929,1.97378,97.4439
-322.456,-3.49327,92.9154
-323.933,-2.5631,90.4203
-335.296,13.4765,83.4614
-329.815,5.19375,79.9291
-336.739,14.1001,68.9043
-329.862,9.12363,65.7487
-334.486,9.62199,58.819
-313.298,-21.4658,145.736
-313.686,-21.1437,126.21
-313.769,-19.8803,122.011
-315.168,-18.1492,113.494
-322.305,-8.90797,110.909
-332.178,2.93154,113.244
-324.285,-8.61671,102.61
-336.555,5.45281,103.778
-332.721,2.99191,96.0285
-331.557,-1.39257,94.9024
-338.109,6.71422,86.9601
-332.97,0.362946,86.1087
-331.714,3.23602,81.2414
-336.617,7.42425,64.4794
-334.283,6.47292,59.1969
-312.028,-24.5226,155.354
-325.608,-11.1922,139.221
-318.633,-19.2664,113.404
-339.448,-0.591011,121.43
-338.591,1.28291,113.901
-337.186,3.63803,106.969
-328.901,-7.66673,101.728
-341.046,5.01608,96.4514
-340.418,4.38966,92.514
-335.906,2.42595,88.804
-340.917,4.2612,83.1241
-334.927,-0.135016,80.9536
-341.626,7.53877,70.4553
-342.817,3.86804,60.2152
-312.978,-24.9806,115.74
-315.707,-23.0061,115.313
-332.357,-9.9067,136.799
-324.176,-17.2062,115.757
-324.375,-17.048,111.222
-343.29,-1.92739,122.657
-327.561,-12.3693,105.841
-329.733,-10.7479,105.368
-333.358,-7.03495,95.5272
-341.984,1.31355,91.2565
-335.936,-7.73001,88.5756
-339.656,-1.82484,81.1725
-339.874,-2.09434,79.9284
-346.606,2.22639,73.2424
-341.936,-3.0777,67.9167
-343.015,0.798857,59.7481
-311.235,-28.1175,130.067
-317.589,-23.1652,152.328
-318.75,-22.3349,126.779
-323.33,-18.7024,114.308
-325.987,-19.0872,112.22
-327.936,-15.3497,109.273
-331.373,-15.6931,108.009
-331.949,-13.4131,103.385
-337.187,-9.29435,103.118
-366.907,10.7483,91.0856
-346.365,-6.71273,88.0074
-357.608,5.43147,80.1544
-344.287,-6.49089,80.7345
-341.304,-10.8839,75.3384
-346.24,-2.51932,66.0712
-320.749,-24.1474,118.449
-324.22,-21.215,121.496
-325.669,-20.5414,112.542
-326.944,-20.9747,111.004
-330.824,-18.3164,108.69
-330.85,-18.8099,107.511
-335.319,-15.4334,104.926
-341.455,-12.8703,101.968
-367.205,-1.79077,103.742
-347.843,-12.0982,87.8867
-346.446,-10.699,83.5955
-345.992,-8.78825,77.3624
-349.239,-11.8279,74.0208
-346.623,-8.8506,64.6933
-346.388,-8.99723,58.8491
-346.318,-11.8197,56.5378
-314.042,-28.8839,155.629
-318.629,-26.7729,150.903
-317.005,-26.5719,117.531
-325.327,-25.2402,118.433
-327.002,-22.3328,111.793
-329.547,-22.6328,109.558
-334.142,-19.514,109.297
-331.363,-21.4384,101.167
-365.698,-11.6077,111.676
-345.806,-16.2613,99.6657
-345.938,-15.7131,95.0904
-361.32,-8.20881,90.6652
-351.606,-13.1434,83.5552
-350.718,-15.0694,75.1547
-351.47,-14.0584,74.4683
-363.763,-8.21387,57.1581
-344.882,-16.3533,63.5356
-344.416,-15.5041,57.6858
-318.167,-28.7046,119.212
-330.094,-24.0396,110.539
-335.427,-24.0331,113.177
-337.02,-25.0484,106.428
-342.002,-21.5144,105.608
-344.759,-22.2496,100.892
-344.629,-22.2457,98.6105
-361.565,-17.3831,94.6583
-346.687,-23.0152,87.7983
-347.656,-19.92,78.9636
-348.456,-21.5837,75.3917
-346.618,-19.7138,70.4666
-343.772,-23.2615,65.9111
-342.489,-22.9437,60.1604
-326.337,-29.2891,122.768
-328.683,-27.3624,123.544
-329.487,-27.9316,118.632
-338.206,-28.1972,112.683
-335.804,-27.3317,107.731
-344.208,-26.0303,106.329
-345.779,-23.3767,101.631
-347.022,-25.0726,96.6946
-348.49,-27.2455,94.1852
-349.769,-26.2426,86.6794
-349.191,-25.0091,83.2233
-355.68,-26.5847,75.4352
-351.711,-25.4956,70.091
-331.383,-27.4342,76.2936
-343.785,-24.217,64.5596
-343.298,-26.5164,61.2686
-341.406,-25.1947,56.8169
-320.003,-31.7136,149.037
-327.01,-30.7718,119.703
-338.812,-30.1933,105.793
-343.002,-30.3057,101.749
-349.346,-28.1511,99.4013
-350.875,-30.3387,90.9506
-348.89,-28.1345,87.2975
-350.264,-28.0146,83.4438
-348.557,-28.1392,77.7914
-349.297,-28.4586,72.1183
-348.097,-30.9275,71.5442
-349.374,-31.1751,61.8284
-351.581,-31.5319,52.8074
-250.918,-26.2597,98.7676
-272.079,-72.5371,58.3218
-273.169,-78.3569,49.9916
-274.777,-76.9892,43.1187
-271.548,-73.5989,38.0385
-268.428,-67.9854,29.0885
-267.205,-74.3346,66.3746
-266.34,-71.5449,62.4168
-267.381,-75.6195,55.7298
-266.55,-67.9607,51.5639
-267.37,-78.9444,41.9633
-264.604,-69.4336,40.9284
-264.955,-63.6336,36.0413
-266.549,-68.4734,28.6773
-261.822,-61.2641,25.2847
-261.213,-72.6455,72.0007
-262.438,-78.505,71.5121
-261.858,-71.3207,58.67
-258.949,-75.0632,57.6283
-264.202,-75.8543,52.3597
-259.888,-78.1206,41.5797
-258.888,-75.7138,35.975
-263.782,-75.3704,34.6912
-260.593,-78.2325,22.4294
-258.189,-72.3649,18.5549
-257.687,-71.3508,11.8452
-255.185,-59.3548,11.7141
-256.461,-59.2595,0.745649
-247.682,-25.1949,98.1392
-252.264,-64.9218,90.7541
-254.716,-72.5865,85.7341
-255.552,-77.9507,79.4284
-254.554,-76.1695,70.855
-257.423,-79.6412,66.8409
-254.381,-75.1004,61.2869
-258.384,-76.3736,55.9967
-259.183,-80.0016,50.415
-257.986,-85.5406,42.5915
-256.108,-75.3952,36.3573
-253.413,-74.883,30.5301
-255.868,-74.088,24.4978
-257.986,-74.2282,21.7996
-251.841,-65.3107,17.3861
-253.811,-69.3925,10.148
-251.911,-61.7876,9.7003
-251.494,-58.9908,5.06877
-249.745,-64.2927,87.0358
-249.044,-76.8138,86.8122
-252.598,-72.9065,79.8608
-250.085,-73.8287,71.2474
-248.667,-74.3644,64.954
-251.581,-76.1015,63.3256
-252.566,-78.0198,58.1949
-252.16,-76.2762,50.094
-251.225,-74.5107,44.4277
-251.574,-75.8761,37.0616
-248.625,-71.8384,34.2205
-250.987,-70.3042,27.6451
-249.446,-73.9354,22.1695
-251.244,-73.6494,15.9392
-250.484,-68.6961,9.34085
-247.943,-65.5403,1.49109
-250.697,-58.0302,2.69891
-249.775,-59.9033,-9.08501
-248.206,-31.0775,1.65813
-245.492,-65.5306,100.17
-245.779,-73.0765,93.3713
-243.41,-66.1855,78.9898
-246.684,-78.5834,82.9323
-243.956,-80.6991,72.9441
-246.157,-79.875,66.4417
-246.797,-75.6569,60.1238
-247.335,-75.0168,57.1171
-246.249,-75.229,50.9097
-245.529,-74.9205,42.9017
-245.32,-74.6192,36.0464
-247.287,-76.087,32.9547
-245.646,-72.8036,25.6094
-246.181,-62.7022,27.6568
-244.727,-67.6738,18.5511
-245.127,-53.5529,22.2411
-247.04,-62.8824,4.7978
-245.94,-67.1279,-4.94812
-247.444,-61.2788,-11.438
-239.909,-63.368,105.17
-239.577,-67.9223,96.7578
-242.376,-71.5444,92.0523
-240.179,-73.1606,83.8971
-240.291,-69.0278,73.2509
-237.916,-70.8406,68.6355
-239.244,-86.384,72.0225
-239.367,-76.4989,59.2107
-241.124,-77.3663,57.3024
-236.079,-79.7039,47.0386
-235.373,-82.4491,42.3507
-238.51,-83.172,36.2279
-240.142,-81.1309,32.4369
-240.164,-76.1794,25.4605
-238.862,-71.6448,25.0316
-238.33,-72.7353,17.5089
-241.567,-65.637,9.33119
-238.524,-70.5495,-0.0706625
-242.249,-59.895,3.25105
-243.238,-61.8546,-8.55767
-245.644,-39.8773,12.5371
-244.216,-46.0949,-6.8031
-237.951,-64.4622,110.758
-235.349,-67.564,98.4384
-234.41,-67.4885,90.1403
-234.553,-69.2011,82.7618
-236.114,-76.2764,80.5397
-234.862,-73.4598,71.9633
-233.118,-73.016,68.8062
-234.245,-73.7581,60.9231
-230.588,-75.9751,54.068
-229.907,-83.0936,51.4303
-232.056,-76.1006,42.8892
-232.881,-78.5769,37.8931
-231.566,-75.1265,32.2238
-233.16,-74.9665,27.1004
-232.7,-70.9793,19.6541
-232.595,-71.9488,11.1757
-236.025,-65.6848,12.92
-237.414,-68.3195,3.99668
-239.114,-50.9944,12.1123
-239.426,-49.6636,4.63298
-242.063,-44.5746,8.49917
-244.144,-39.4926,5.92021
-233.845,-64.8708,108.397
-232.303,-68.0224,100.592
-228.809,-72.7834,96.3139
-229.72,-68.8872,89.7165
-229.434,-72.3534,83.1353
-225.458,-74.062,73.2125
-225.665,-76.2888,67.0998
-229.213,-75.8964,63.9903
-224.005,-77.5174,58.2606
-223.603,-79.3075,52.8591
-227.284,-74.7427,41.0697
-228.055,-77.5831,35.2872
-228.699,-69.0668,33.8689
-229.38,-65.7817,28.5988
-230.361,-71.8313,18.9702
-230.972,-61.5536,22.0854
-232.772,-58.46,18.2524
-236.23,-55.0718,15.6307
-236.885,-52.3678,10.341
-235.911,-52.1307,-2.43303
-236.155,-55.2615,-15.2796
-237.292,-47.3273,-10.8032
-225.825,-63.9114,122.496
-229.118,-60.6352,100.003
-223.691,-66.9549,93.8402
-226.378,-69.3096,85.6591
-224.984,-71.0424,81.5055
-221.293,-82.3114,69.007
-222.06,-80.5834,63.3835
-222.966,-78.1393,56.3473
-221.422,-79.238,47.0338
-220.785,-83.0495,41.5803
-222.811,-77.5892,36.2779
-224.594,-74.5035,29.4752
-222.376,-71.607,25.1323
-225.78,-68.132,18.8325
-231.501,-58.3123,21.2579
-225.048,-65.618,8.13978
-229.297,-56.5493,5.59931
-232.36,-53.7147,0.807836
-232.778,-55.7607,-1.6322
-236.955,-47.4789,-5.05899
-238.845,-42.4475,-6.28652
-240.515,-39.302,-7.80623
-227.681,-54.2737,122.823
-226.976,-52.8402,107.513
-226.03,-56.7473,100.56
-222.783,-58.461,93.7715
-220.32,-61.8467,29.9606
-225.747,-60.6646,26.7267
-219.228,-68.8339,8.46451
-225.943,-60.7343,13.0911
-218.348,-70.1136,-2.99967
-229.238,-52.6192,0.535105
-228.859,-49.8878,-0.821189
-229.584,-51.3876,-17.5795
-230.378,-47.7776,-23.134
-229.371,-46.2588,119.446
-228.521,-49.5618,114.179
-216.5,-63.3991,15.7299
-216.135,-65.7068,2.97052
-219.284,-56.9632,-0.394544
-216.42,-59.4643,-16.8735
-227.908,-46.1084,-2.0509
-230.895,-46.6039,-7.70143
-230.357,-46.8129,-19.0637
-231.003,-40.6779,124.91
-213.461,-60.6784,-8.32667
-215.737,-55.536,-8.03621
-221.067,-49.4405,-12.9493
-226.639,-42.8626,-2.75721
-212.322,-54.7882,-12.0189
-218.049,-46.4976,-12.7117
-223.868,-44.4359,-14.5534
-226.042,-39.5911,-15.7922
-215.238,-44.6438,1.08397
-219.807,-42.4579,-10.1672
-223.891,-37.722,-3.99743
-217.032,-39.6068,-4.07837
-219.461,-39.9809,-14.7201
-226.145,-35.7081,-8.3744
-227.178,-33.8864,-24.1007
-212.698,-36.6977,-11.0796
-221.753,-34.169,-3.09159
-222.815,-32.3527,-16.1156
-220.53,-32.3499,-2.60142
-223.544,-30.5772,-9.07496
-220.3,-28.2086,-2.77052
-226.427,-28.0747,-15.8559
-224.29,-26.49,-25.7998
-230.181,-24.4191,126.494
-220.453,-25.2526,-10.6786
-222.862,-24.6954,-17.9518
-228.498,-25.4517,-16.2372
-217.937,-21.3282,-11.4654
-223.187,-22.5328,-17.3412
-230.264,-23.0906,-17.0823
-237.844,-21.9289,107.918
-216.822,-18.769,-11.2827
-223.661,-19.7576,-16.5822
-231.393,-20.9141,-17.5197
-232.004,-20.4813,125.622
-231.177,-19.3496,125.308
-221.152,-16.197,0.114537
-217.673,-16.5398,-11.7189
-224.031,-17.643,-15.8753
-228.983,-17.4621,125.794
-218.46,-11.1517,21.1717
-215.619,-12.9446,-10.2574
-220.615,-12.483,-16.0916
-224.233,-14.448,-14.669
-232.781,-18.0456,-17.3787
-226.187,-12.284,129.661
-221.927,-10.799,21.0931
-216.94,-7.28235,-5.40196
-218.355,-10.5709,-9.60631
-224.417,-12.4743,-13.6203
-233.499,-16.4675,-16.361
-224.674,-8.01925,82.9232
-227.164,-10.4806,20.022
-212.644,-2.23907,-5.43354
-217.53,-4.80502,-2.87411
-225.578,-8.48104,-9.31691
-226.226,-10.6396,-15.1138
-234.03,-15.0508,-15.2846
-246.133,-22.9439,98.1214
-231.991,-10.2798,119.258
-231.259,-10.4935,19.1061
-221.846,-2.13259,-3.15643
-225.544,-4.20063,-4.64196
-230.647,-9.14088,-13.2338
-234.26,-14.0164,-15.4316
-231.722,-7.11571,123.852
-230.92,-5.66518,113.76
-229.589,-7.07523,83.9978
-222.599,3.47906,73.2173
-218.086,8.3158,19.9936
-219.161,5.80342,15.1331
-220.094,3.90784,11.4521
-226.652,-1.65133,5.02061
-227.029,-2.66561,3.92205
-227.197,-3.3137,-3.70304
-230.196,-7.55054,-10.173
-235.84,-11.6196,-12.4721
-232.743,-4.01757,111.535
-231.116,-3.82984,83.3353
-225.051,1.12946,76.4441
-221.55,10.6909,62.4483
-219.581,10.855,60.7361
-218.75,15.2843,41.9207
-217.724,14.2059,31.3905
-217.547,12.2943,27.7259
-220.695,10.6834,25.1886
-223.275,8.8229,18.1017
-220.849,6.36273,15.316
-221.189,8.31934,9.26093
-227.084,-0.997436,5.17124
-228.111,-1.21772,4.40718
-236.567,-10.9732,16.4602
-245.38,-20.9104,97.7477
-244.149,-18.4568,95.1839
-238.421,-9.14162,119.304
-238.727,-8.86721,97.0744
-236.528,-7.74006,88.7123
-234.707,-5.84949,84.113
-233.597,-1.25747,77.2093
-231.759,0.0864954,74.1559
-229.763,6.66903,73.5191
-229.329,6.46901,70.5198
-226.768,9.33065,67.9414
-226.34,8.74145,62.8074
-223.959,11.292,56.493
-220.952,13.3903,53.016
-221.009,14.264,47.9724
-223.339,17.6488,45.3662
-221.94,18.2915,41.4019
-220.928,16.4236,34.743
-225.385,12.4968,27.9565
-224.5,11.9547,27.4662
-225.417,10.19,20.5668
-223.553,9.891,13.2585
-224.858,7.68657,4.2727
-228.402,7.01102,4.46701
-227.042,4.75093,-8.87224
-229.189,1.41176,-11.4323
-240.419,-12.1724,12.7274
-244.03,-16.5108,92.4367
-240.999,-10.7212,92.1311
-234.649,-0.354811,111.829
-237.954,-5.15987,83.8526
-229.645,10.269,103.164
-235.917,-1.49889,79.5658
-233.289,0.912154,72.9887
-231.146,5.17321,75.7479
-230.036,9.18214,70.1544
-229.539,13.1687,68.141
-229.794,12.5159,61.216
-227.104,21.1156,58.7952
-228.798,14.5904,51.614
-224.008,23.8922,52.0416
-226.24,16.8119,38.9959
-224.211,19.1685,32.8893
-229.086,12.9381,28.4765
-230.951,12.9828,28.4617
-230.134,13.3601,22.0382
-225.794,16.0146,8.45207
-232.263,10.1147,8.25282
-233.542,6.20572,4.0214
-234.638,3.50756,-3.4148
-234.941,-2.19728,-7.17826
-244.139,-16.3774,95.6431
-239.183,1.26823,109.736
-240.73,-4.50429,83.0995
-238.782,-1.36571,82.0156
-238.839,0.79857,80.8884
-236.846,1.91884,72.6022
-232.386,19.1964,82.993
-235.685,11.9519,72.2551
-224.471,33.2851,80.348
-232.6,10.016,62.2724
-228.217,22.7621,61.4048
-233.2,14.4073,51.1182
-222.143,35.354,41.6564
-231.193,21.8459,39.2913
-233.035,20.4139,36.5573
-231.775,12.4021,29.3248
-234.06,12.4088,28.2646
-233.212,15.511,21.5728
-234.016,9.01744,10.2621
-236.938,8.25724,6.55237
-235.352,8.32154,-4.94028
-245.312,-15.8252,95.2246
-244.016,-11.705,94.0649
-239.284,1.31922,109.687
-240.666,0.16829,91.7505
-241.565,-3.97128,82.6008
-239.021,12.1571,92.581
-240.026,2.51788,72.565
-237.22,8.57663,72.5109
-234.163,23.3229,70.7167
-233.663,20.7014,63.1847
-234.062,31.0447,61.623
-237.24,14.6677,51.1606
-234.169,17.1388,43.8127
-236.137,21.973,39.7613
-237.031,14.4741,35.3137
-238.263,18.2238,32.4851
-236.876,11.9647,28.2963
-238.447,11.3646,17.5429
-239.103,11.8815,10.6113
-238.623,11.3053,-2.03665
-246.272,-18.3309,97.6912
-244.571,1.37473,112.424
-243.774,0.71589,92.5996
-241.183,9.01487,95.8774
-242.655,1.16022,75.8522
-243.259,1.18554,73.2657
-242.684,8.00384,73.9761
-238.514,22.4682,78.6021
-243.693,10.7257,64.8528
-239.342,14.3736,63.5972
-240.433,26.2622,56.7474
-240.199,17.3361,47.5553
-239.779,41.6229,39.8486
-242.808,16.5849,39.4775
-240.267,19.5223,36.1277
-241.197,23.4348,29.4106
-241.912,12.0246,28.0941
-238.794,23.7049,8.29949
-240.957,12.7285,8.26078
-243.876,9.06566,8.32137
-245.503,-13.9129,6.96092
-246.703,-12.7507,88.4086
-245.311,2.58047,108.778
-245.352,-2.0603,85.387
-246.215,4.97375,79.7601
-246.707,0.272826,71.7163
-246.65,8.99267,75.9485
-246.866,11.2098,69.4193
-245.442,10.1292,64.4327
-244.82,30.9927,61.7766
-243.441,15.852,52.0202
-246.285,21.2191,50.1623
-244.979,21.4862,42.0363
-247.261,18.8265,38.4924
-245.102,18.5755,33.7448
-245.678,18.2074,32.2457
-246.355,14.2844,28.0025
-247.04,16.9532,20.3103
-246.951,16.3436,15.6078
-246.992,15.032,9.70316
-248.306,-15.8698,96.8255
-247.954,-12.9668,93.6289
-247.626,-2.71594,86.1749
-249.375,-0.16844,80.7929
-249.616,2.13139,79.3397
-248.308,3.85743,72.8678
-249.65,7.56969,74.7763
-249.512,11.4175,67.6556
-247.988,10.7528,66.3338
-251.91,20.153,58.345
-248.513,16.6796,53.2566
-249.35,19.8423,48.4893
-251.601,18.2342,44.0204
-251.674,23.956,39.7902
-248.26,24.194,35.0072
-251.289,21.6704,26.6295
-251.234,22.9704,23.0445
-247.598,20.7264,19.8714
-248.163,14.8057,12.7112
-248.047,10.5631,8.46805
-248.027,12.9568,5.38822
-250.042,-3.59806,82.6191
-253.014,11.0064,97.8822
-250.449,3.31122,78.1757
-250.701,-0.823206,71.8262
-252.057,11.5198,77.7462
-252.492,12.9797,71.0696
-251.701,10.9953,66.5508
-255.235,20.1214,61.7327
-252.585,15.1494,59.3919
-255.713,17.4392,55.6608
-255.532,19.9907,48.9126
-253.316,24.0745,42.4263
-253.862,24.4816,36.8168
-253.123,15.6903,34.4153
-255.94,23.1753,30.9508
-254.896,16.6418,24.9406
-255.067,18.8931,17.6629
-254.068,17.9489,13.4389
-251.511,12.0938,8.4975
-249.353,-15.0045,1.15833
-249.595,-14.3077,96.0693
-250.782,-12.2874,96.6199
-250.709,-8.83481,85.7338
-251.576,-6.65152,84.5821
-253.147,2.67923,73.2319
-254.722,9.37342,72.8364
-257.665,8.82495,68.0233
-257.541,15.4898,65.7736
-257.567,15.8601,63.9769
-259.548,16.5164,57.7224
-260.111,17.0393,52.098
-258.132,18.0526,47.6254
-259.855,16.8479,44.4682
-260.7,17.0819,38.928
-262.354,23.8391,35.4445
-258.806,22.9832,28.0295
-261.045,18.8948,22.9191
-253.388,-8.3049,86.0241
-254.645,-5.89196,85.1942
-256.526,-2.865,81.38
-255.693,0.512296,81.4267
-257.433,2.44201,76.1436
-260.663,6.8587,76.8811
-261.921,10.9149,68.6445
-263.113,17.6078,67.4167
-263.797,17.93,63.1131
-261.262,17.4714,58.3878
-264.989,16.7801,51.6814
-261.769,17.6151,48.9483
-265.663,23.7101,43.0712
-261.748,16.0295,41.0095
-264.119,24.5928,31.0704
-263.583,15.9286,31.966
-257.051,-5.61496,83.6017
-258.574,-3.29755,81.5908
-257.53,-1.92372,73.6952
-260.128,2.69005,74.7415
-263.606,6.55053,75.5455
-267.935,12.1818,72.3359
-267.864,13.199,71.1754
-266.657,15.9916,62.422
-266.945,19.7625,58.9502
-272.21,19.3444,54.8433
-273.152,23.5913,50.0411
-267.075,15.0842,45.7936
-256.571,-8.37311,86.7913
-259.659,-4.50008,82.8994
-261.454,-2.41456,80.7045
-263.029,-2.48687,75.2009
-266.971,5.0408,73.6527
-268.439,7.79917,70.3575
-269.592,10.5205,69.7596
-270.912,12.2086,65.9183
-274.21,14.7628,61.3307
-272.918,12.1955,54.0394
-272.603,19.5457,50.7501
-259.155,-8.5228,91.6323
-264.387,-4.62027,84.5695
-264.148,-1.82101,83.0593
-266.743,0.0910192,78.1299
-270.641,7.49999,75.7037
-272.144,9.38917,71.1752
-272.758,10.4789,70.5153
-274.588,12.969,66.6563
-276.552,15.6535,61.8873
-262.768,-9.44092,89.357
-264.355,-6.41483,81.6297
-267.104,-4.84669,79.0838
-269.91,-3.56136,76.8117
-271.289,1.78101,76.5737
-278.559,8.58114,69.9994
-276.817,8.66148,62.132
-271.781,-3.13847,75.7799
-273.041,-3.16971,75.5993
-251.277,-21.6579,8.85238
-190.833,-24.3446,98.3317
-202.326,-24.9275,126.703
-204.861,-24.3984,109.357
-207.541,-25.1681,107.858
-213.874,-25.3603,101.648
-203.043,-25.3241,16.5926
-205.776,-25.1337,-19.7895
-201.151,-24.3191,-18.2251
-210.389,-28.432,135.23
-210.51,-26.7473,105.307
-214.112,-29.6116,103.162
-207.317,-27.9676,-3.20638
-203.303,-26.8804,-15.1088
-206.064,-29.742,142.055
-214.042,-31.7417,147.172
-214.231,-30.7199,102.525
-209.039,-29.5887,-19.7254
-197.877,-27.3403,-8.96191
-206.193,-31.235,143.313
-201.521,-29.0527,100.685
-215.621,-35.4514,103.799
-215.444,-33.7692,102.039
-202.582,-29.5114,-10.4899
-198.738,-28.5748,-9.84232
-191.314,-25.7655,99.321
-202.18,-30.5357,128.275
-207.305,-33.4587,134.138
-208.086,-33.6919,-1.01511
-207.574,-34.3055,-17.3873
-199.607,-29.6922,-8.49547
-204.675,-34.0587,101.323
-216.764,-42.945,116.41
-200.814,-32.482,16.8016
-203.999,-33.8355,-11.4882
-196.696,-29.3976,-10.9629
-193.983,-28.0397,-13.1446
-191.102,-26.5335,100.475
-200.996,-34.9738,128.223
-216.047,-44.9433,150.566
-209.604,-41.2115,101.352
-223.012,-53.6788,119.12
-215.667,-47.246,99.7624
-208.426,-41.5619,1.57783
-205.531,-39.0369,-11.8672
-200.173,-33.7953,-7.45689
-198.133,-33.504,119.82
-204.199,-40.7117,132.127
-204.466,-40.5014,118.468
-208.886,-46.6589,116.602
-213.834,-48.76,6.46936
-208.964,-46.646,-2.27838
-206.775,-43.4616,-10.7023
-199.683,-36.4019,-11.4459
-195.785,-33.3356,116.792
-198.802,-36.4641,116.966
-205.088,-45.22,118.469
-208.969,-51.9254,119.99
-212.388,-53.1321,109.61
-215.62,-57.8416,105.754
-218.73,-60.3791,103.449
-218.07,-63.7037,90.422
-219.272,-62.9156,82.0104
-211.699,-55.2588,14.5851
-212.865,-51.9857,10.2911
-209.051,-47.3515,4.00205
-199.591,-37.1336,16.5648
-204.718,-44.4735,-16.9106
-199.493,-38.0433,-5.79815
-194.114,-30.9746,-12.6495
-200.318,-40.7947,127.738
-201.947,-45.4842,127.701
-214.984,-63.0774,141.079
-215.129,-63.3796,106.161
-215.258,-66.1679,101.699
-218.585,-66.4755,90.4202
-218.541,-66.0335,89.9299
-218.918,-76.191,82.813
-219.175,-71.0996,76.2905
-215.57,-66.854,66.3415
-211.558,-64.2264,33.9597
-209.984,-59.7137,20.0045
-213.101,-58.6997,10.767
-207.597,-55.7328,7.36105
-208.691,-52.4521,-7.11116
-199.368,-41.7902,16.7805
-201.179,-45.5674,-13.6522
-200.281,-41.4569,-17.7997
-194.51,-34.4607,-11.0379
-191.292,-30.5932,117.03
-201.317,-47.415,144.22
-199.142,-46.4756,123.695
-208.319,-64.5826,135.823
-208.793,-68.9578,121.589
-207.248,-65.6054,109.531
-209.027,-64.9802,102.048
-214.914,-71.2895,93.4075
-210.668,-73.421,86.5123
-217.693,-76.8962,80.3815
-217.501,-77.563,77.5403
-216.051,-73.0223,69.2595
-213.456,-74.7091,63.6301
-213.215,-69.1729,55.9426
-215.907,-78.3094,47.4469
-210.92,-70.7766,43.1761
-213.937,-72.5767,35.4879
-209.98,-70.0706,35.2949
-208.044,-64.8089,27.9717
-208.488,-65.4559,19.9419
-212.435,-71.3363,10.7869
-200.982,-51.5742,20.3442
-207.67,-64.3235,-4.59083
-199.795,-45.6261,17.7921
-201.151,-51.6311,-8.33763
-198.359,-45.8758,-0.842227
-196.288,-41.6068,-9.59696
-194.64,-35.0123,-11.6079
-198.583,-51.7907,118.876
-198.218,-54.1609,114.965
-206.418,-68.0826,123.55
-201.124,-60.6841,98.6721
-203.01,-64.693,96.9335
-206.566,-69.7524,88.6155
-206.43,-71.9438,83.1737
-205.339,-72.7663,81.4149
-204.211,-72.368,72.3165
-210.901,-76.4868,70.223
-205.9,-74.405,62.8713
-207.514,-75.6627,53.765
-211.032,-81.4763,47.2783
-210.389,-74.8731,42.2943
-206.159,-75.6516,35.6768
-204.408,-67.1046,37.2201
-208.537,-69.4134,30.5565
-205.297,-62.9576,26.1974
-202.969,-57.976,23.5761
-205.977,-68.2679,6.70021
-204.217,-62.6354,0.481938
-200.859,-58.249,-0.267866
-198.189,-49.1277,-7.03746
-196.115,-46.3814,-2.15873
-193.857,-37.6301,-10.1619
-193.692,-37.0773,-23.684
-189.552,-29.2705,117.101
-194.953,-49.2171,142.334
-196.353,-52.518,123.093
-196.672,-55.3071,111.654
-196.329,-57.1499,99.3087
-197.129,-62.443,97.5284
-199.965,-63.9966,97.4338
-198.869,-69.4528,88.5223
-201.759,-69.7999,83.9808
-203.694,-72.9924,77.5266
-202.539,-73.7217,74.1313
-201.609,-74.8479,68.3475
-201.114,-75.5851,63.4687
-201.096,-77.2339,56.0312
-201.413,-78.3299,50.6497
-202.185,-72.7017,46.0775
-204.518,-78.128,39.5903
-204.302,-74.3589,33.4461
-200.106,-71.297,26.422
-201.482,-71.6731,16.3286
-198.407,-65.5912,9.45441
-196.824,-62.7396,7.70006
-196.385,-52.5333,2.32275
-193.251,-42.4296,-8.69124
-191.701,-35.9917,-24.1225
-189.452,-29.5113,118.407
-196.047,-65.6079,126.051
-193.877,-60.2856,105.33
-193.299,-59.3887,97.3968
-194.634,-63.8229,91.3045
-195.4,-68.1654,88.5597
-194.025,-68.1902,82.8996
-197.237,-72.4451,78.0866
-194.29,-73.1435,72.3678
-195.81,-74.5843,65.1219
-197.306,-80.9153,62.0957
-198.269,-74.4212,57.4634
-195.15,-79.8206,49.2652
-200.375,-81.5845,45.707
-197.278,-70.1214,40.8423
-196.235,-79.5257,29.3469
-199.961,-87.3866,18.8229
-195.445,-66.5047,21.5304
-193.963,-66.3641,19.3803
-196.755,-72.1804,4.72022
-194.961,-61.9402,4.45332
-192.542,-59.1138,3.82677
-191.975,-54.5964,-2.28519
-192.918,-48.2616,-6.02143
-188.771,-29.1549,117.56
-191.271,-52.7504,122.794
-189.297,-57.1893,114.936
-190.564,-55.4109,97.3669
-189.444,-59.923,98.382
-192.113,-66.0142,91.2072
-192.832,-72.7773,91.9551
-188.517,-72.7312,82.0634
-190.274,-74.2671,79.2397
-188.486,-76.728,74.387
-192.082,-82.8455,60.2004
-193.898,-84.5908,53.7528
-194.033,-80.7562,49.481
-190.354,-78.0687,41.5507
-191.262,-78.9501,35.1196
-193.954,-81.3581,27.1514
-189.324,-76.5282,27.0211
-193.351,-78.5636,20.8303
-189.115,-67.9422,15.1499
-191.35,-61.449,15.9111
-190.195,-63.0528,4.85399
-191.776,-56.5215,-0.699267
-190.366,-46.9055,-1.99403
-189.546,-39.047,-22.7597
-186.041,-51.3437,139.173
-185.853,-57.5702,138.137
-187.497,-48.3968,97.9202
-185.082,-59.9297,103.763
-186.347,-56.6088,96.8982
-186.363,-67.6896,92.1285
-187.717,-69.4245,87.9976
-182.801,-78.8098,66.0751
-183.863,-78.0233,63.9745
-184.896,-78.9277,57.8572
-185.446,-79.9892,49.1371
-188.397,-73.5493,45.8361
-187.655,-76.3885,35.7214
-185.94,-84.0766,28.4383
-183.541,-77.1018,26.8854
-187.339,-74.3599,19.9303
-186.684,-73.9596,12.1783
-188.04,-69.1365,8.36653
-188.281,-58.8739,13.086
-186.002,-54.8054,8.8142
-184.855,-58.983,-10.78
-187.056,-46.3636,-2.01948
-187.471,-42.7434,-21.002
-184.444,-53.8439,122.046
-185.343,-52.6909,116.47
-184.395,-50.4404,97.5145
-181.751,-63.0279,105.802
-182.24,-65.4725,97.4405
-179.54,-71.125,89.6084
-179.533,-73.9494,82.289
-180.885,-75.7713,77.7115
-181.025,-76.5931,70.8713
-182.112,-79.8949,67.1107
-179.272,-81.6888,60.9481
-181.92,-80.4665,58.1497
-181.701,-75.7793,49.8668
-178.452,-82.4745,43.0785
-176.549,-81.451,35.0229
-178.011,-80.8171,32.2576
-182.828,-74.8048,27.7806
-178.144,-74.0389,21.9479
-180.075,-72.7274,12.8546
-183.854,-66.2978,11.3111
-184.218,-55.2074,9.75778
-181.015,-63.6724,-13.1261
-183.47,-55.41,-12.9011
-184.321,-44.4181,-1.88291
-186.04,-37.9431,-28.3325
-184.847,-39.8261,96.9697
-183.379,-45.4736,98.1493
-180.17,-59.8143,103.217
-178.577,-61.6257,102.228
-176.858,-68.1632,97.1952
-177.934,-71.3192,87.7333
-172.716,-73.9323,81.111
-176.265,-79.012,73.0875
-172.002,-80.9691,68.5031
-174.15,-76.9558,54.7605
-169.489,-85.6747,48.2557
-168.928,-88.5178,45.1009
-171.362,-84.6731,39.2348
-174.928,-79.7211,28.925
-173.55,-78.6946,26.0469
-171.967,-76.5514,20.1461
-176.818,-67.929,13.9622
-178.25,-71.3537,4.06383
-178.652,-61.0396,4.75767
-181.361,-52.4251,6.64575
-182.551,-49.5077,4.04286
-183.089,-42.2507,-2.24568
-182.851,-47.8621,-23.4693
-179.502,-48.4772,118.329
-180.497,-47.3543,99.263
-174.247,-67.9796,104.082
-174.153,-68.2291,94.7364
-168.62,-84.3136,99.3225
-168.522,-72.9939,84.6744
-171.099,-76.5108,83.9731
-165.097,-80.5695,67.0976
-167.637,-81.1317,60.1441
-166.639,-82.098,56.5097
-167.706,-82.6394,49.571
-168.107,-82.4657,40.6804
-167.359,-81.3596,33.9639
-166.73,-78.4342,32.0367
-167.828,-75.2043,26.0283
-168.963,-70.7507,18.9453
-172.316,-67.5375,15.7139
-170.008,-67.2848,8.65621
-173.842,-66.3342,-2.83824
-175.803,-62.9128,-4.54701
-178.844,-49.7998,4.54014
-182.497,-38.5471,-2.50004
-183.491,-33.0191,96.185
-182.021,-38.5716,98.9054
-172.022,-58.444,120.984
-170.314,-58.0019,106.696
-165.869,-66.5204,116.464
-168.471,-66.8723,95.894
-168.018,-69.9668,91.6956
-163.972,-72.9885,87.291
-163.053,-74.8055,84.268
-161.142,-75.9622,77.8448
-162.535,-77.9615,71.7048
-160.929,-83.1161,65.5014
-161.977,-82.7164,58.7756
-160.565,-84.5669,52.2733
-158.865,-85.3924,43.0721
-164.246,-68.0425,37.7998
-163.011,-78.7583,17.3443
-166.398,-67.0949,17.1769
-169.659,-63.3721,6.15754
-169.001,-59.0913,1.36061
-170.867,-60.607,-8.70533
-176.98,-48.1216,3.53242
-180.007,-41.8467,-0.526153
-180.333,-41.8894,-20.9705
-182.135,-35.3306,-23.2395
-172.859,-48.0872,144.238
-172.728,-49.4818,122.557
-169.696,-55.9221,131.719
-166.353,-60.7521,120.975
-161.906,-64.4388,118.66
-154.773,-79.3934,112.788
-162.252,-68.5801,92.9927
-156.776,-69.9529,89.311
-157.546,-74.3854,83.5971
-156.209,-79.4691,75.1807
-160.803,-66.7504,18.2182
-161.219,-70.8782,3.69293
-164.869,-58.7172,-4.00597
-170.541,-53.9354,-2.27106
-174.326,-46.0714,2.74525
-176.703,-42.4833,-13.8455
-181.853,-34.9185,-2.80323
-181.371,-32.8709,98.7506
-172.744,-42.0435,99.6619
-164.879,-54.2163,109.639
-158.489,-63.9048,120.858
-159.113,-62.0632,103.48
-158.218,-61.0866,95.0812
-156.729,-66.5562,19.4364
-157.912,-65.3752,-3.14216
-160.58,-56.8939,-3.30677
-165.178,-56.25,-2.02383
-172.436,-44.5714,1.82454
-172.793,-43.6913,-20.5936
-181.083,-33.5903,-19.9716
-166.879,-43.8288,146.043
-155.057,-61.3202,122.424
-156.512,-58.6836,107.202
-157.901,-54.8868,96.8438
-156.983,-57.6938,24.9651
-156.691,-52.9996,1.96453
-163.705,-49.3896,-4.77499
-170.421,-42.9826,0.675749
-171.354,-42.618,-6.70871
-180.847,-32.4677,-2.83718
-164.37,-42.0493,146.262
-158.905,-49.8928,112.569
-158.089,-49.8336,98.053
-158.435,-49.8788,0.354757
-160.052,-46.073,-0.852896
-167.94,-40.9822,-0.291684
-172.001,-37.4072,-8.36725
-182.601,-28.6619,-8.72371
-161.723,-40.3158,146.628
-155.435,-46.5224,113.036
-158.669,-42.6101,99.0116
-160.734,-42.996,-1.27063
-166.228,-39.7348,-0.748387
-164.419,-41.6628,-19.7658
-172.561,-35.7953,-21.6107
-158.755,-38.0761,146.521
-163.664,-37.8882,-0.98813
-167.613,-34.2171,-12.1463
-173.662,-31.0798,-9.8752
-178.529,-29.3813,-2.80967
-156.559,-36.1596,146.287
-163.202,-34.0553,98.5575
-158.224,-35.7385,-0.976289
-161.563,-35.387,-3.63559
-177.318,-28.9974,-13.4399
-184.903,-25.4567,-26.9694
-180.873,-26.1738,97.6145
-162.025,-30.5546,-4.65976
-161.366,-30.4203,-14.231
-171.599,-29.7113,-21.4084
-181.12,-26.3538,-3.56828
-181.502,-26.3396,-21.993
-155.318,-28.3811,126.42
-162.059,-28.1673,97.2989
-156.586,-27.9259,96.5513
-162.423,-27.1367,-5.05173
-166.322,-26.662,-10.7294
-175.877,-25.7957,-2.84468
-162.054,-24.363,127.216
-161.658,-25.6585,-3.96638
-169.077,-26.1612,-4.7433
-172.329,-25.7032,-3.97635
-175.662,-25.1826,-9.96879
-182.196,-23.97,94.4668
-164.462,-22.5202,127.831
-160.455,-22.3838,122.043
-156.796,-23.7141,121.758
-157.649,-24.0576,-4.6407
-163.221,-22.8879,-4.65157
-172.754,-23.9576,-3.63694
-166.423,-21.0555,127.902
-165.275,-20.9183,122.519
-164.673,-20.0229,93.8692
-164.209,-19.853,-4.01543
-174.212,-22.2771,-2.27006
-171.934,-19.1624,121.929
-158.732,-17.9418,124.788
-155.837,-16.7593,-2.41777
-165.815,-17.0875,-6.94189
-170.81,-20.398,-5.81724
-177.053,-21.3049,-9.22564
-181.133,-21.4416,96.0895
-170.924,-16.8629,127.347
-158.921,-12.1246,-8.51312
-165.487,-15.6958,-2.72125
-172.426,-17.455,-1.4701
-178.722,-20.2134,-11.9902
-183.034,-21.7691,124.742
-176.084,-18.2772,121.601
-159.335,-7.50221,121.198
-166.622,-14.1967,91.2207
-156.793,-10.101,3.80393
-159.128,-9.76784,-18.5213
-169.621,-13.7416,-5.30169
-169.23,-14.8836,-22.0504
-179.131,-17.9334,121.59
-173.147,-14.1723,126.117
-166.738,-9.75705,122.862
-160.706,-6.62872,121.801
-158.235,-4.59629,-4.27625
-166.779,-11.7318,-1.20827
-170.456,-11.8359,1.39176
-174.929,-12.1884,125.26
-166.062,-7.50555,118.174
-159.495,0.0859095,110.3
-168.992,-7.25864,87.3783
-159.227,-1.63212,14.5214
-160.143,1.04424,0.830795
-162.91,-2.21217,-1.90019
-170.381,-8.89374,3.37915
-177.097,-14.3353,-17.697
-176.143,-12.7224,125.765
-166.386,-3.40722,121.511
-164.939,0.998867,115.164
-157.398,4.90903,112.191
-158.161,5.31737,109.757
-158.885,4.26528,76.9943
-162.469,3.32269,23.8626
-156.674,5.7912,4.90246
-159.066,2.33719,2.31881
-166.703,-4.24465,2.50893
-170.661,-6.77029,5.08535
-179.756,-16.0263,-7.06125
-183.138,-17.738,122.049
-177.096,-9.5478,124.424
-166.407,1.46113,107.728
-170.736,-2.28709,84.4412
-157.528,11.4419,103.512
-166.543,4.53511,75.6555
-163.403,7.54851,71.4631
-161.202,9.74371,68.467
-158.777,12.2513,65.431
-156.106,14.2758,61.4627
-158.286,10.7682,47.332
-156.261,19.2843,37.2837
-158.24,17.1456,15.89
-157.147,15.5277,14.7136
-157.303,11.1847,6.12623
-168.691,1.31012,8.96665
-171.633,-2.81628,9.90833
-179.211,-11.8497,-18.9581
-182.898,-17.843,-1.40141
-185.112,-20.3684,-7.69805
-182.94,-14.7844,127.969
-182.817,-15.5949,91.0609
-173.172,0.48033,120.809
-173.79,0.184368,112.591
-177.421,-6.08098,84.6585
-168.265,9.76254,103.41
-172.679,-1.42196,81.7659
-169.853,1.44964,79.4109
-164.06,9.71026,67.275
-163.768,12.4776,60.3823
-162.958,14.6725,54.9239
-161.446,18.7424,48.0092
-167.154,11.6709,45.1028
-159.623,19.3167,38.9696
-168.039,8.5806,34.406
-163.961,17.2855,21.7271
-158.147,18.1369,13.6175
-170.949,5.08683,14.5645
-172.68,-0.729325,13.4416
-176.499,-6.44367,-12.9327
-181.088,-13.5195,-10.0369
-180.973,-8.36095,117.704
-177.407,0.0770256,116.012
-181.686,-9.72958,87.46
-174.651,4.23295,103.775
-172.444,3.74181,80.0362
-173.523,7.11827,76.5768
-159.25,40.2387,68.5092
-168.9,17.6217,52.2877
-167.738,17.5538,45.9789
-172.524,10.1503,41.4931
-168.587,17.1837,34.5999
-167.307,17.5608,30.0718
-167.508,15.9861,24.5109
-168.843,15.8023,18.5359
-175.301,4.69547,19.2712
-173.739,1.408,16.3784
-174.547,2.24212,11.0801
-174.08,2.39551,-0.129021
-176.388,-2.16729,-9.04815
-182.197,-12.4815,-4.73197
-186.097,-17.7459,122.233
-181.504,-3.06249,121.458
-183.265,-11.3691,90.9972
-173.49,9.54706,103.725
-174.921,9.43373,71.6426
-175.213,11.3573,66.2132
-175.188,12.7503,61.8895
-176.395,12.5719,54.4199
-174.17,14.4187,50.2775
-175.944,9.75635,47.4901
-175.136,13.1414,43.3113
-173.433,16.6427,28.4879
-171.005,16.0564,27.1194
-174.773,8.51506,22.8379
-177.011,7.88846,21.4061
-175.962,4.31037,14.9943
-178.111,5.34227,-1.73287
-176.862,2.29624,-4.63056
-184.285,-13.3575,-9.23038
-185.3,-11.4594,85.7618
-184.486,-7.94306,82.7315
-180.198,6.61245,100.16
-175.852,33.6976,84.0228
-181.227,8.3462,65.4234
-179.483,10.1655,60.5774
-174.885,36.7771,65.6269
-175.436,20.3064,54.394
-179.049,10.1908,50.2739
-179.525,10.5158,47.1475
-178.117,10.2886,41.6824
-179.521,10.4764,37.5499
-177.092,18.2024,30.1069
-178.072,10.3212,29.6047
-178.062,10.3677,21.8585
-179.83,7.4199,22.2448
-182.373,3.79491,12.3379
-183.217,-2.82499,4.95062
-183.925,-7.59286,0.217342
-184.801,-11.956,2.70911
-187.705,-18.1202,95.8378
-186.797,-16.0532,89.738
-183.556,0.198416,116.761
-181.706,8.93015,103.12
-184.138,-2.40078,78.9783
-185.046,3.79948,79.4707
-183.592,2.12853,75.0616
-183.062,5.16227,71.4679
-184.14,10.4249,70.0168
-175.961,39.9141,75.8252
-182.086,13.79,65.0691
-184.017,8.99788,56.3266
-182.017,11.7537,44.9956
-176.453,52.7455,29.5188
-182.211,11.2534,39.0123
-180.852,19.3074,32.4296
-181.282,9.96216,31.1791
-182.872,8.75772,26.8834
-182.526,6.64646,18.2282
-183.634,10.1283,12.8579
-183.963,8.24687,3.04599
-185.04,3.20473,-8.77936
-185.86,-2.41799,-17.3273
-187.211,-12.7009,-5.26281
-188.124,-19.0427,92.6417
-187.422,-13.3896,92.0058
-188.279,-2.90543,115.9
-188.274,-7.43257,86.0239
-188.456,10.0463,100.188
-186.701,-1.30285,81.8698
-186.968,26.6072,79.0122
-180.604,59.3594,89.6079
-187.484,21.0575,64.6101
-184.294,34.4499,65.0716
-183.928,42.9377,59.5449
-185.052,43.7267,52.1234
-185.273,10.4146,46.3643
-186.494,13.9993,41.4361
-184.081,19.6088,35.6403
-188.448,11.019,36.3317
-185.306,9.7282,30.8418
-187.417,7.6052,10.6261
-187.068,0.32102,0.00675831
-187.16,-0.115791,-16.2145
-188.108,-6.87714,-7.59821
-189.748,-3.98498,81.187
-191.279,12.9223,88.5859
-188.638,4.54221,77.2925
-190.965,10.9238,70.798
-191.025,6.267,64.1238
-193.116,79.7687,78.9053
-189.673,6.79074,57.3774
-189.845,35.7047,57.5615
-191.506,23.6208,48.3639
-191.407,19.4793,47.2331
-188.611,19.6994,41.7381
-190.756,11.7483,40.7113
-189.983,19.6598,26.6118
-191.159,8.04127,18.6977
-189.919,5.9728,9.15748
-189.403,3.53732,4.01336
-190.111,-5.4451,-1.02432
-188.763,-22.7251,99.0741
-191.447,-8.82458,117.683
-191.173,0.695043,117.293
-193.623,8.26609,105.863
-192.209,-1.64743,73.0611
-193.045,1.97542,69.7976
-192.98,2.37969,66.443
-196.239,19.8515,70.0588
-193.531,15.423,62.277
-195.686,11.0924,56.5887
-194.132,11.1171,55.7211
-196.387,13.0895,52.4386
-193.683,12.2474,47.0536
-196.566,16.6228,41.0748
-197.135,36.5665,26.4607
-195.194,24.8253,26.954
-195.889,19.3536,26.7245
-192.427,11.2491,6.94851
-192.501,4.02626,7.24867
-190.809,-4.52773,14.1077
-192.182,-2.70568,-4.98036
-191.478,-3.77591,-13.3034
-189.35,-19.1369,-10.405
-194.431,1.26081,117.254
-199.044,16.0305,110.843
-196.484,12.4609,95.7495
-193.608,-1.55106,75.9708
-193.8,-1.25861,73.6853
-196.844,1.56406,71.2019
-197.754,18.0998,67.2805
-198.796,16.2085,63.2021
-197.8,8.58159,59.3807
-197.015,11.2519,53.657
-199.145,22.0679,48.6894
-202.586,19.2991,43.0212
-200.734,19.1954,42.2679
-198.803,21.8204,35.1075
-202.725,24.0495,28.2177
-196.934,9.62444,19.2482
-195.8,-0.00565463,23.316
-196.712,4.82094,9.00774
-194.067,1.66793,5.20902
-197.313,-4.31607,118.324
-199.195,2.29363,116.216
-200.685,8.79655,106.128
-195.576,-3.49567,77.5425
-201.858,14.7344,91.5431
-198.496,0.3111,72.6583
-198.538,4.56066,68.5651
-199.492,6.70424,63.8759
-215.103,39.6182,67.5873
-213.152,47.9252,63.7506
-200.419,8.97885,54.5147
-204.851,23.9615,51.8717
-200.417,11.2916,46.0525
-204.276,20.4549,41.7302
-201.255,13.483,36.4336
-201.232,14.3527,28.7747
-203.674,11.7522,19.173
-200.135,9.96532,16.2594
-200.237,3.91209,16.8016
-199.955,2.36324,12.1456
-196.03,-2.46385,2.94811
-196.692,-4.0661,2.41345
-193.821,-8.26665,-16.2641
-189.565,-22.0439,95.6912
-197.473,-8.35523,86.5949
-205.082,9.60748,106.513
-207.454,16.4149,109.557
-202.091,-0.209494,73.9009
-203.096,1.99412,70.3374
-211.893,20.2751,78.802
-214.293,21.9853,72.4314
-214.903,23.8172,64.5659
-205.91,9.72037,56.6088
-208.623,13.3673,51.823
-211.363,17.0648,43.3466
-207.624,8.99949,42.9773
-212.769,23.3801,32.4156
-202.904,5.74558,36.5904
-209.399,14.153,24.8077
-204.875,12.199,20.4607
-205.74,10.8779,13.1037
-201.28,4.34813,14.3796
-199.978,1.35826,8.45881
-199.85,0.235873,4.02952
-197.471,-6.41275,1.27861
-192.295,-17.7855,95.7457
-208.897,5.30101,111.417
-209.498,10.8692,106.589
-210.354,12.4499,91.3602
-215.851,14.8787,88.951
-212.323,14.8953,84.472
-211.478,11.4694,74.2719
-209.382,6.2963,67.1316
-210.398,10.4998,62.5443
-212.645,10.5294,55.3783
-212.419,11.1553,48.2864
-216.617,17.7519,46.0051
-215.311,15.5154,34.726
-212.759,15.2148,29.9213
-210.412,13.555,22.0117
-211.813,13.3276,15.8333
-208.389,8.84024,10.6547
-208.058,3.53092,9.74668
-205.051,0.253764,5.54893
-202.912,-2.34087,2.23898
-198.096,-8.06642,0.161654
-197.736,-9.18759,-4.03885
-198.904,-10.3475,91.773
-214.63,7.37168,108.249
-213.469,5.58919,92.2517
-206.518,-3.60685,76.8164
-213.6,9.11788,80.7398
-215.26,11.3419,75.8645
-215.874,9.28645,64.4558
-214.194,9.53749,58.5149
-216.524,13.8017,54.638
-213.984,8.80631,17.9125
-210.487,5.9248,12.8575
-205.232,-1.51709,-7.8517
-199.302,-10.0376,-1.55135
-200.13,-11.0698,-4.97747
-197.501,-14.141,-18.7024
-195.464,-16.8387,122.454
-204.258,-9.68594,117.586
-220.123,6.10038,117.854
-222.59,8.99686,115.228
-213.195,0.734476,83.3182
-218.942,7.02389,68.0117
-210.908,-3.27387,-10.0134
-203.399,-9.24951,-12.1377
-200.28,-11.4916,-2.70518
-197.217,-14.6831,-10.3697
-198.956,-16.5513,122.418
-202.084,-12.2617,97.6902
-216.468,0.85231,121.685
-216.486,-2.65288,94.1325
-213.066,-4.45908,85.2922
-210.277,-6.77287,-8.35351
-210.052,-8.57305,-8.24971
-201.673,-13.8061,-3.87318
-196.216,-17.5395,-11.1566
-201.463,-16.2237,122.411
-204.875,-13.7351,101.032
-213.557,-6.08373,121.415
-212.759,-7.8116,78.989
-208.921,-12.084,-8.68631
-202.745,-15.8844,-4.26644
-197.942,-17.4483,-6.69341
-201.243,-18.3553,131.601
-204.699,-15.8891,122.613
-208.238,-15.1066,104.444
-221.049,-6.35325,122.63
-212.817,-10.8983,88.6359
-217.752,-8.75721,80.6
-214.663,-11.2406,20.2835
-212.381,-11.3659,19.3174
-210.02,-13.2722,17.8823
-206.106,-14.4572,-8.21959
-200.089,-17.5923,-8.02948
-200.875,-18.6312,-19.6597
-208.052,-15.7832,123.106
-209.836,-16.0512,106.096
-222.639,-10.5185,118.693
-212.662,-15.435,93.0183
-208.282,-15.7986,17.3144
-204.166,-19.0623,-4.27597
-200.389,-21.3606,110.433
-206.815,-18.5004,127.292
-210.472,-17.5446,108.106
-220.637,-15.2218,125.578
-219.558,-15.6034,99.6875
-205.202,-20.6879,16.6225
-201.277,-21.4317,-8.73267
-201.583,-20.6392,-19.7853
-197.303,-23.1505,98.6994
-201.656,-22.8034,110.244
-218.502,-20.6714,136.217
-213.336,-21.4012,98.5821
-205.751,-22.3418,-4.04926
-200.953,-22.7816,-9.27754
-193.659,-23.2969,-9.63101
-194.271,-24.2292,125.659
-201.115,-23.6114,115.78
-205.184,-23.8505,115.711
-219.637,-22.7023,103.981
-199.733,-24.0132,-9.57268
-194.343,-23.9315,-12.8576
-139.033,-24.5738,142.763
-139.098,-24.9979,98.787
-146.389,-24.9442,-23.5065
-144.932,-26.0762,-23.3209
-143.379,-27.6727,144.217
-140.262,-27.984,96.3806
-155.48,-30.5142,-21.444
-138.564,-27.3872,-22.4253
-130.86,-25.2223,-25.6399
-141.87,-30.1988,121.108
-148.547,-31.4935,125.559
-147.19,-30.8041,4.65654
-152.97,-31.7116,-21.2353
-139.955,-29.8314,-23.3866
-124.067,-24.7224,-27.0452
-135.031,-29.3866,101.927
-144.362,-33.3392,125.013
-152.906,-34.9182,-1.40649
-145.795,-34.047,-1.99906
-139.013,-31.245,-2.80317
-135.796,-30.1227,-3.00449
-133.597,-29.3078,-21.8871
-128.207,-26.3926,-24.6879
-128.361,-27.7978,122.601
-136.392,-32.3932,121.054
-147.08,-37.8106,120.883
-141.289,-34.409,97.6508
-154.866,-40.9339,-16.116
-139.805,-34.0017,-21.9381
-128.76,-28.2429,-3.89355
-127.115,-27.2983,97.1939
-136.449,-34.1758,100.081
-150.154,-43.3817,117.071
-151.876,-44.6989,112.988
-149.816,-43.5693,11.6659
-154.311,-43.3409,-18.9327
-136.947,-33.1722,-23.2543
-133.651,-31.5633,-20.7091
-127.722,-27.9432,-24.3008
-133.648,-34.236,104.274
-134.302,-34.846,97.3318
-147.791,-47.0837,115.034
-143.338,-43.6023,98.1082
-153.877,-49.7641,-16.3348
-148.758,-47.2653,-26.3264
-141.16,-39.7185,-20.8348
-133.133,-34.0993,-20.1979
-131.376,-34.4837,120.982
-131.427,-34.1131,98.8192
-144.756,-48.6374,112.788
-151.092,-51.0209,110.156
-145.961,-50.0718,97.792
-153.893,-57.1028,4.19861
-153.955,-54.5332,-13.3269
-143.971,-47.6879,-18.1906
-133.449,-35.8479,-21.3838
-124.725,-27.0771,-4.18454
-134.671,-41.234,100.364
-135.669,-42.8594,97.847
-143.595,-50.2925,100.058
-151.865,-58.5781,105.486
-150.137,-57.5016,97.4791
-152.931,-62.3732,94.2937
-151.304,-59.8446,5.27205
-152.744,-60.4413,-9.89172
-147.24,-53.3703,-15.2407
-132.177,-38.0463,-19.5785
-127.373,-30.7048,-23.6877
-125.07,-30.0645,97.632
-130.494,-39.0082,123.492
-130.004,-38.2047,99.0426
-133.804,-44.4979,99.7772
-138.525,-52.429,99.5604
-141.713,-57.1489,98.419
-145.392,-62.9504,97.0312
-146.543,-66.6098,95.4512
-153.507,-72.886,88.1956
-151.217,-74.6277,85.6029
-154.57,-78.9235,24.4263
-147.499,-65.4662,22.8627
-153.036,-78.1204,3.66253
-147.471,-62.7972,6.38858
-147.085,-67.6472,-15.9951
-133.515,-42.6745,-19.7644
-125.246,-29.1343,-22.539
-128.947,-38.3637,123.167
-129.861,-39.97,106.667
-138.739,-55.4825,126.819
-133.621,-50.7475,100.693
-140.036,-58.3825,96.8197
-142.44,-63.1914,94.5397
-145.968,-69.0646,90.5662
-148.616,-72.2186,88.1087
-151.636,-76.8645,82.4941
-154.478,-81.3621,73.4766
