X,Y,Z
-346.329,-12.6124,-46.9718
-345.356,-12.6199,-47.4624
-350.612,-9.72191,-56.0901
-349.853,-10.0124,-59.4822
-348.976,-11.382,-62.4886
-342.592,-8.92718,-67.3397
-347.159,-10.6181,-74.7253
-350.199,-10.0453,-83.8005
-338.502,-11.1519,-81.4694
-352.441,-18.9381,13.8192
-343.047,-18.7776,7.30114
-344.534,-22.4244,2.72974
-342.893,-21.0207,-5.1398
-344.737,-21.6912,-9.10459
-347.117,-17.4571,-14.239
-354.068,-20.2733,-22.9598
-349.945,-23.3302,6.94963
-345.078,-24.3693,-1.32357
-341.647,-25.5742,-5.06925
-346.891,-26.5723,-11.452
-348.664,-23.2543,-19.3556
-347.934,-26.147,-20.6731
-345.547,-32.3542,11.7
-341.861,-32.7526,8.33046
-349.485,-30.8771,4.97229
-341.49,-28.124,-4.8556
-345.97,-32.8312,-8.92721
-345.87,-31.6,-13.5736
-348.087,-29.5318,-21.6067
-347.137,-29.9996,-27.2762
-341.129,-33.4705,9.00171
-340.338,-33.7169,-4.73902
-342.341,-38.9798,-18.3677
-344.166,-34.746,-22.5416
-342.769,-36.1716,-26.8995
-341.647,-41.0612,6.15358
-341.179,-43.498,4.27167
-339.555,-39.0456,-7.93214
-341.036,-41.4914,-13.7495
-345.469,-47.3688,-25.971
-345.014,-42.5753,-31.7321
-338.371,-49.0159,0.443718
-341.445,-52.2339,-4.43122
-338.695,-47.8739,-12.9247
-341.933,-49.4088,-16.3247
-337.505,-46.5442,-20.4907
-343.661,-49.0305,-27.2853
-336.493,-50.656,-1.26823
-335.22,-52.0698,-2.71259
-336.129,-49.9366,-10.7216
-329.822,-51.2767,-18.1372
-330.36,-49.2745,-21.9902
-334.784,-59.2285,4.58077
-333.446,-55.2681,-4.78277
-329.663,-51.839,-17.6377
-338.647,-59.9118,-25.1966
-325.376,-53.0159,-26.6622
-323.761,-61.204,0.0790422
-325.06,-62.7176,-4.07181
-324.833,-60.7295,-11.411
-326.582,-61.156,-13.5171
-329.993,-66.8687,-31.5055
-319.342,-63.3808,-4.30285
-323.215,-62.1696,-9.06887
-324.595,-67.0217,-24.8603
-323.535,-68.5129,-27.9312
-315.645,-63.6629,1.62079
-316.226,-66.1049,-5.31251
-319.791,-67.7023,-16.9136
-310.357,-59.3434,-22.0152
-308.835,-65.5781,-1.03338
-310.354,-66.5713,-11.1642
-307.429,-65.5302,-15.457
-309.473,-71.0414,-24.3494
-303.222,-67.0117,-1.96731
-304.724,-76.6919,-15.4509
-305.774,-64.1955,-19.4688
-303.065,-63.1221,-26.1591
-301.138,-72.0124,-27.6446
-300.192,-64.3744,-30.3928
-295.992,-67.7716,-3.69996
-293.112,-71.8259,-12.8819
-292.94,-71.7857,-15.9053
-291.854,-72.3435,-20.0564
-295.716,-66.4311,-34.4039
-292.15,-66.5976,-37.5422
-290.649,-67.952,-6.54174
-286.047,-74.9181,-9.10901
-285.922,-82.6371,-18.5044
-290.561,-72.8858,-23.8061
-289.515,-72.6746,-26.6911
-286.143,-68.6313,-35.9915
-289.868,-66.053,-40.1271
-287.394,-66.5421,-43.0798
-283.888,-70.7597,-3.64849
-283.238,-68.7523,-11.4557
-280.116,-73.6443,-15.5313
-280.518,-74.1836,-20.7093
-286.342,-59.9429,-24.2309
-284.118,-71.5184,-34.3136
-283.356,-64.2378,-39.7019
-277.637,-69.6059,-7.54373
-268.308,-89.9346,-7.83904
-278.115,-70.2113,-14.9445
-275.991,-71.6435,-20.6764
-269.004,-107.393,-43.4533
-278.489,-72.3594,-36.4625
-274.556,-69.5629,-43.4409
-280.412,-62.6327,-43.2341
-272.357,-73.5755,-6.52817
-272.364,-67.9353,-9.97306
-271.75,-70.6363,-18.2979
-271.57,-70.9605,-20.484
-267.333,-72.7988,-31.5196
-267.28,-81.2389,-42.0892
-273.827,-69.5037,-44.4636
-271.267,-70.5842,-46.4583
-264.78,-76.418,-6.51724
-268.229,-66.5241,-12.4804
-262.673,-67.3773,-16.5458
-259.863,-76.1909,-22.0316
-269.459,-56.2778,-27.5671
-262.978,-67.6991,-36.0402
-266.895,-61.3396,-37.1814
-265.442,-63.4341,-44.4854
-256.187,-72.7266,-12.2864
-263.335,-63.7556,-17.0508
-260.519,-61.5854,-22.0272
-261.699,-66.2782,-38.243
-264.761,-62.9207,-43.6067
-266.699,-53.0104,-44.1787
-254.647,-64.2012,-3.3333
-250.871,-64.8454,-7.58236
-258.043,-61.9043,-17.5846
-255.503,-59.5182,-24.4192
-255.177,-57.191,-28.7968
-258.187,-53.8223,-34.8173
-259.663,-54.011,-36.6094
-260.684,-57.455,-45.2133
-263.574,-48.5793,-45.9621
-248.835,-61.3181,-6.35255
-247.169,-59.2154,-7.60462
-249.444,-60.8356,-15.4238
-255.212,-56.4282,-30.2391
-256.202,-54.3334,-33.3548
-251.891,-53.4346,-42.7537
-258.965,-52.3633,-41.1422
-260.168,-49.7354,-46.6523
-235.087,-59.8861,-5.54143
-243.7,-52.5891,-9.73465
-242.166,-55.8833,-18.9436
-243.211,-52.1079,-25.4755
-243.196,-54.7901,-29.9068
-251.679,-50.6685,-31.3017
-247.752,-50.2057,-40.6166
-252.417,-45.8819,-43.6774
-256.083,-44.9121,-46.826
-237.25,-49.3302,-5.95838
-241.862,-50.5736,-10.8708
-236.724,-52.6013,-18.9945
-241.877,-50.307,-25.5533
-244.474,-44.7231,-30.174
-245.66,-44.0298,-36.512
-248.04,-42.5457,-39.4996
-250.061,-41.8364,-42.9782
-231.157,-47.5612,-3.03133
-239.198,-45.9577,-13.1492
-240.673,-42.9143,-17.7245
-242.218,-40.4683,-21.4052
-241.668,-41.4976,-27.562
-242.244,-39.5623,-35.0158
-245.079,-41.2467,-41.0877
-248.174,-40.1713,-42.9527
-231.073,-37.5323,-3.67664
-233.233,-38.4629,-10.6773
-235.021,-39.1469,-16.1649
-239.227,-37.911,-25.2553
-243.694,-38.0607,-26.3551
-245.438,-35.3133,-32.9572
-250.314,-31.0043,-38.0724
-225.622,-34.6339,-4.0267
-234.74,-32.6667,-11.9175
-238.508,-30.0087,-15.9666
-240.818,-27.9231,-19.5525
-235.584,-30.3831,-28.5683
-239.285,-30.7497,-34.3904
-244.04,-31.8994,-39.4353
-252.601,-28.2147,-42.2173
-254.449,-25.8772,-45.6326
-230.506,-28.0166,-4.89946
-212.38,-26.7318,-13.2428
-235.577,-26.3789,-16.94
-233.179,-27.8221,-20.8545
-243.139,-24.1871,-24.3666
-239.402,-27.6422,-36.2144
-242.721,-23.3422,-39.6896
-248.331,-24.8793,-44.4842
-230.391,-21.9281,-5.23161
-212.611,-22.5929,-13.115
-236.84,-20.4205,-19.0354
-234.936,-18.4287,-23.5305
-244.278,-21.8654,-27.9753
-245.446,-20.7521,-31.9459
-249.333,-19.13,-37.5079
-251.874,-17.1603,-40.2949
-224.463,-14.2422,0.760555
-233.619,-11.104,-5.64526
-225.072,-10.6862,-13.0307
-230.087,-16.6496,-18.8953
-239.478,-13.396,-20.3714
-237.784,-14.2595,-30.6992
-237.106,-11.5221,-34.8025
-240.484,-14.0969,-42.71
-243.456,-13.4051,-46.0596
-255.752,-13.9746,-44.2203
-224.767,-9.39221,1.05987
-236.08,-5.9846,-4.30307
-224.042,-9.05841,-11.3408
-230.627,-10.7197,-18.5686
-241.715,-8.17129,-20.6577
-240.336,-8.40956,-28.1665
-242.172,-7.64925,-35.2737
-240.49,-7.412,-37.3468
-236.915,-11.0251,-46.3597
-225.435,-1.44342,3.52776
-238.129,-3.02996,-2.50909
-226.434,3.75289,-10.9325
-223.93,-1.40112,-19.0124
-241.14,-3.3248,-22.3415
-241.561,-4.4959,-26.2103
-244.473,-2.11382,-34.255
-243.577,-2.06101,-35.8665
-246.125,-5.07617,-41.0177
-243.215,3.0759,3.3236
-233.996,6.72875,-4.99796
-235.532,6.37006,-7.24673
-228.251,4.8237,-13.5525
-247.878,2.1391,-18.8136
-243.64,3.57994,-27.9584
-243.602,-0.479622,-31.3245
-253.713,-0.631534,-41.8749
-247.153,7.3212,6.49498
-241.671,8.40039,1.02422
-241.045,9.51902,-5.87886
-241.828,10.4411,-8.80903
-250.969,5.3704,-17.4382
-247.835,6.52005,-20.574
-245.29,5.54155,-26.1774
-251.035,4.99872,-33.2704
-252.402,2.93707,-35.6457
-253.204,0.699499,-38.8849
-249.912,10.0942,8.9093
-233.806,20.3745,11.1794
-238.341,19.7818,6.62374
-242.763,11.06,-11.0861
-253.322,7.13282,-16.7142
-247.868,8.05862,-26.0824
-253.327,13.0018,11.9052
-242.889,18.4711,-0.441865
-244.277,18.1931,-6.2133
-246.499,19.4902,-12.68
-256.723,9.36879,-14.7805
-257.393,14.3877,14.9868
-243.934,34.5535,9.49095
-240.002,33.6329,3.5826
-242.488,27.799,-6.14197
-260.642,12.3354,-12.0785
-256.646,21.6753,11.3284
-257.933,20.0093,3.41864
-259.145,19.3487,-2.58541
-261.051,18.4594,-7.69112
-263.776,14.9179,-9.83646
-262.228,18.0824,-14.1123
-263.127,19.7954,-21.2647
-263.48,19.8079,-23.6824
-264.931,23.7086,15.628
-265.752,23.8931,9.72341
-267.873,18.3287,-6.35695
-265.69,22.0855,-22.2469
-265.23,20.3833,-24.7636
-267.529,24.1055,3.81572
-270.989,20.3853,-3.75667
-270.336,24.9855,-6.45898
-269.773,25.01,-12.1561
-269.445,24.4458,-13.7315
-267.21,25.0237,-19.3037
-268.084,35.2407,13.2365
-272.875,36.883,11.3567
-274.871,23.0404,-0.309642
-278.018,25.2547,2.15169
-278.986,36.5573,3.27793
-284.582,41.0311,21.2177
-283.828,30.141,7.9554
-281.633,28.5396,5.35705
-282.343,38.1466,1.97215
-285.718,30.2879,-32.0111
-284.834,28.0364,-35.4674
-290.132,28.7854,17.1021
-286.834,30.158,11.8788
-285.127,41.5493,8.77546
-285.464,39.9064,-0.837403
-287.554,41.0412,-3.42199
-290.816,34.0079,-23.6478
-286.48,32.1103,-29.4742
-292.186,27.3224,20.8441
-295.972,28.6518,16.6741
-296.529,42.7671,15.8159
-292.512,45.4897,-0.279393
-293.586,43.0871,-10.0471
-296.915,44.4652,-15.9855
-293.649,35.1771,-21.1895
-296.102,48.6483,-28.3601
-296.74,29.1002,15.1651
-297.337,30.3565,13.1397
-298.079,32.8271,8.90924
-298.79,35.1922,-0.0732241
-299.319,35.1034,-2.7008
-301.52,38.9417,-7.65114
-300.593,42.271,-15.6027
-297.161,37.1636,-19.8163
-299.765,41.6779,-27.5324
-306.309,43.8788,19.2658
-303.447,34.2256,9.66096
-307.224,49.4723,-2.84293
-310.601,52.3087,-11.8983
-310.498,42.3394,-16.7168
-304.038,40.7677,-22.2109
-308.742,28.6628,20.9754
-313.585,35.2322,13.7961
-313.956,36.7627,10.616
-314.83,44.6936,6.72975
-315.385,49.2015,0.371911
-311.999,40.9827,-12.1772
-311.536,41.3683,-13.6649
-314.711,42.7123,-20.618
-319.343,32.1975,19.7525
-316.78,33.5439,16.6049
-324.451,41.2668,16.2126
-316.704,39.0778,4.27013
-312.022,27.522,-6.29712
-317.619,41.432,-8.18671
-319.443,45.0867,-15.5002
-325.083,42.2272,-24.1777
-319.973,32.546,19.9959
-322.508,32.7934,19.37
-327.57,32.9649,9.72161
-325.702,35.9318,6.20229
-328.373,37.6078,-1.06843
-326.407,41.5773,-10.8667
-335.955,56.7086,-18.5876
-325.643,42.2782,-25.9128
-329.32,27.8241,16.3242
-328.61,31.8139,10.8657
-334.398,31.9597,2.98161
-333.54,33.0883,0.349088
-340.622,40.8648,-9.62353
-339.705,37.2582,-15.7756
-335.928,38.7355,-23.6489
-332.651,21.6206,22.1501
-331.786,23.9918,19.6592
-336.323,27.9474,12.9219
-335.824,23.8357,1.7847
-338.484,29.0857,-0.766836
-341.949,29.7286,-10.7155
-340.156,33.0683,-15.7941
-321.643,15.9888,-19.0445
-339.57,24.4114,24.6765
-334.949,20.7361,19.1038
-343.755,23.6023,9.07494
-344.074,29.69,5.85215
-343.415,21.8277,-6.52784
-341.917,23.3922,-8.63987
-346.826,26.5174,-15.8056
-329.671,7.91412,14.7314
-351.967,21.8597,19.929
-342.804,12.7777,7.2132
-342.963,12.8228,3.91581
-345.75,22.1769,-4.27688
-362.912,25.104,-12.5798
-348.161,16.7261,-18.5183
-346.378,14.789,-20.3508
-340.953,5.39809,11.0683
-342.319,6.04125,10
-343.44,12.2732,2.08058
-343.543,7.00571,-5.32713
-345.253,8.09471,-7.8192
-345.202,11.8655,-16.1447
-343.303,9.45655,-23.4927
-341.381,4.96798,15.4052
-342.637,2.72735,7.7942
-342.193,0.178959,-1.16126
-343.107,3.66142,-3.85517
-347.388,6.57476,-9.31268
-347.744,5.73303,-25.8416
-346.948,1.75978,-27.4208
-344.249,-5.81821,18.1173
-350.152,-2.6366,8.04387
-338.344,-5.74293,-2.23769
-350.418,-1.19385,-6.62824
-346.267,-4.54468,-11.9631
-347.497,-2.12684,-15.3771
-345.05,-4.7131,-24.6463
-345.32,-5.42699,-27.0908
-344.243,-11.1591,15.3183
-350.707,-6.17738,8.18239
-349.792,-8.1618,1.633
-344.46,-11.3337,-2.54652
-345.232,-10.3425,-8.79196
-347.75,-8.71021,-23.2907
-345.385,-6.7879,-28.222
-343.591,-14.2127,11.8471
-342.994,-16.5252,9.3083
-344.473,-14.4033,-2.0011
-344.134,-16.9444,-7.79959
-343.98,-15.5832,-11.8311
-344.127,-14.1394,-15.8389
-346.378,-14.1377,-20.2825
-346.288,-13.3665,-25.8456
-342.973,-31.7229,51.7313
-346.597,-31.1784,35.0424
-354.189,-29.1472,26.5538
-353.136,-34.3839,23.7821
-345.293,-31.3747,15.5069
-345.971,-31.559,13.5973
-343.241,-36.011,46.3616
-343.47,-37.6602,44.9341
-345.997,-35.3247,34.7145
-355.859,-39.5409,25.8752
-352.756,-37.1963,24.036
-341.763,-42.9767,40.6496
-344.371,-42.9024,34.1958
-354.88,-43.3623,31.8253
-351.594,-43.1688,22.7017
-350.467,-42.1361,17.5662
-342.614,-40.919,11.5461
-352.193,-55.1676,47.9424
-353.729,-49.9318,42.9421
-338.147,-49.1172,32.8847
-338.912,-47.8397,10.4228
-350.666,-59.0401,51.1118
-335.442,-50.305,28.2758
-334.974,-50.4248,26.2782
-336.364,-52.6928,10.7744
-332.695,-55.8487,21.6539
-330.378,-55.2439,17.0472
-328.69,-55.7503,14.2798
-329.154,-63.3862,25.0097
-330.471,-60.911,20.8169
-327.33,-57.4673,11.2136
-326.776,-58.6956,9.69474
-326.339,-68.6174,32.6109
-323.778,-64.9116,20.1561
-324.725,-62.0116,7.39298
-320.148,-62.9706,4.52384
-323.531,-73.0605,38.3159
-318.569,-66.1267,17.8702
-316.789,-72.8776,48.1376
-314.725,-74.6267,42.2413
-311.414,-67.9828,15.616
-313.576,-77.838,52.1571
-315.349,-80.7236,48.241
-313.028,-72.9047,38.3422
-311.561,-70.1015,33.5978
-311.179,-70.0093,32.6276
-308.858,-71.8455,26.7381
-307.37,-72.6819,21.7364
-306.727,-69.3454,13.5362
-322.008,-97.5736,-4.00743
-308.677,-79.3209,52.2401
-322.895,-127.894,42.0909
-313.755,-98.855,17.2554
-306.081,-73.332,19.1036
-303.331,-73.3693,16.9965
-301.306,-70.5922,9.451
-300.534,-79.6211,45.8503
-313.69,-131.271,25.3881
-299.706,-84.9185,19.0434
-300.782,-72.7374,15.07
-297.424,-71.7988,11.4358
-296.667,-70.7716,6.30116
-294.943,-79.0215,41.6488
-293.429,-84.0349,33.8495
-293.493,-84.1744,28.6462
-293.635,-83.2797,24.9749
-301.752,-131.622,5.59672
-300.9,-96.457,3.77717
-295.338,-71.4675,9.33812
-292.71,-71.1114,7.12946
-291.3,-79.1309,51.5973
-287.304,-75.9875,48.1676
-292.135,-84.7256,42.2051
-288.105,-78.2314,35.757
-288.449,-75.4072,28.0302
-290.707,-81.3709,22.4787
-289.37,-79.3633,19.9519
-294.454,-126.922,-8.20792
-291.242,-71.3357,5.74364
-288.589,-70.6359,-0.0962378
-286.455,-77.1782,50.2728
-286.53,-74.4023,44.6965
-285.527,-74.8142,41.0184
-285.561,-76.1069,35.8504
-287.237,-76.3763,31.9756
-284.379,-73.3466,23.9475
-279.687,-139.971,0.829978
-282.492,-111.174,5.43684
-280.643,-81.2081,52.1228
-278.723,-77.5577,45.3266
-280.612,-75.5214,39.9898
-279.108,-75.3004,37.271
-279.149,-78.2562,32.3193
-280.258,-79.9561,25.4188
-280.703,-73.1291,21.8515
-280.522,-77.2027,16.2765
-281.761,-76.6994,10.6599
-280.295,-75.257,3.70726
-279.606,-74.5732,-1.99773
-272.732,-77.2211,51.6369
-275.836,-77.1927,48.6015
-272.017,-79.648,38.6441
-276.859,-76.1484,34.9992
-272.483,-74.3961,30.0803
-272.658,-73.3924,20.4892
-268.108,-90.8969,-4.64842
-274.203,-76.7473,-2.97802
-266.79,-78.0982,50.9041
-265.731,-77.7947,46.1959
-266.213,-78.5116,40.428
-270.488,-72.1886,34.5533
-270.926,-71.5461,31.2572
-270.692,-70.9274,26.1023
-270.625,-71.1229,21.1601
-270.613,-71.9925,14.1579
-270.288,-68.5548,7.60729
-269.508,-72.6206,1.64991
-265.195,-73.4589,52.0793
-265.68,-73.6462,48.5195
-266.159,-74.1738,40.2505
-265.227,-75.4919,35.1735
-263.974,-76.6966,27.9944
-261.872,-72.6769,23.3896
-263.963,-71.136,18.0523
-265.31,-75.6237,13.9282
-266.203,-68.9176,8.15284
-266.793,-68.6935,5.49243
-254.945,-72.8713,51.675
-256.197,-75.6096,47.3647
-255.22,-74.9983,41.3011
-257.181,-72.0527,35.848
-258.709,-73.7373,27.3918
-259.012,-73.851,26.9774
-259.932,-72.6986,18.0143
-260.122,-70.1586,15.9577
-257.209,-70.7958,8.84333
-263.56,-68.4422,3.25178
-253.242,-74.5725,49.1838
-250.173,-77.1186,41.608
-246.362,-75.3825,39.1398
-245.269,-77.9075,28.2432
-254.521,-71.7908,24.6028
-255.042,-71.9213,18.9398
-252.713,-68.0862,11.8715
-250.511,-73.1341,3.65431
-259.065,-66.3372,-0.466323
-241.849,-76.2261,26.6867
-246.194,-71.5608,22.0367
-244.328,-73.4263,19.4451
-249.027,-66.6977,10.6204
-235.937,-84.2235,-2.44504
-247.026,-68.5539,-2.70103
-237.993,-70.3421,21.0467
-235.335,-68.3106,17.3506
-244.227,-64.1853,9.83129
-235.189,-68.7958,1.49731
-236.812,-64.9932,-3.66344
-228.448,-70.1855,17.8252
-234.616,-64.7656,16.5516
-238.208,-60.7758,7.28099
-230.935,-63.3986,-1.41448
-235.511,-57.3359,8.0982
-235.574,-54.1655,2.55401
-227.805,-54.0874,7.3819
-232.189,-46.9229,0.0234906
-225.769,-45.9401,-0.182229
-246.726,25.3794,33.524
-240.07,32.7418,29.812
-259.339,18.9931,30.5621
-260.527,14.8689,17.4923
-258.944,29.1248,55.103
-258.112,23.8111,47.4032
-262.484,23.6911,39.7923
-264.436,22.9672,37.5732
-260.836,22.2494,29.475
-266.258,18.3189,22.1374
-264.238,16.7549,20.3595
-270.274,16.9766,57.9194
-271.109,20.7753,50.0664
-270.096,22.4194,49.8235
-270.327,23.5228,38.775
-265.342,22.7295,37.006
-271.03,19.3051,29.7669
-268.721,19.3237,25.6562
-273.512,16.582,59.9859
-273.675,17.3808,59.8195
-271.825,21.34,52.6739
-275.666,22.9453,45.5854
-276.536,19.0136,41.1349
-273.947,19.2248,35.6464
-267.043,37.2273,25.6914
-279.353,16.4268,62.3223
-280.485,16.5501,54.8095
-279.995,16.9219,51.0734
-278.302,18.2569,45.2828
-275.02,38.8738,23.5005
-285.822,21.8752,61.9753
-282.344,19.5259,54.2275
-282.822,19.2164,48.8497
-284.816,19.35,44.9268
-286.588,19.1264,39.9837
-285.215,29.8698,37.9568
-286.762,33.0311,31.706
-286.128,31.6885,22.0771
-292.08,23.5191,62.7672
-290.239,21.7511,58.1706
-292.178,26.7799,56.5352
-292.457,26.8977,49.7463
-291.542,30.8316,44.4507
-287.378,20.0076,36.9453
-288.382,21.1895,32.3723
-290.914,25.3237,25.6603
-294.218,22.3586,60.9092
-296.089,24.8614,51.1687
-294.126,28.859,49.044
-296.333,29.3443,41.8889
-297.934,24.8453,36.4277
-295.968,25.7737,28.4625
-294.473,26.0594,25.3726
-301.018,23.7318,62.2099
-301.997,24.4963,55.4824
-300.207,21.6612,45.9204
-298.799,23.5984,41.2712
-303.793,26.2021,38.421
-304.818,28.1212,31.1223
-305.933,29.2708,52.0047
-308.749,32.7331,45.1236
-308.295,31.3945,33.436
-305.367,27.8691,29.4562
-307.857,27.4788,25.4616
-310.426,23.9476,63.3612
-316.613,25.3017,59.1117
-310.559,21.152,46.7748
-318.691,37.0296,47.7761
-316.894,33.1658,37.2289
-320.468,35.344,28.2034
-322.812,25.3013,53.8591
-320.402,19.8116,50.3222
-318.413,18.1713,35.0393
-322.652,17.0276,49.9757
-332.8,23.1018,46.7137
-336.41,27.8869,38.1871
-337.823,33.7731,30.5229
-331.392,18.6569,60.9098
-327.357,12.7866,49.6597
-333.226,14.2685,40.1202
-334.504,15.5772,38.6105
-333.611,19.1923,30.829
-335.169,19.8082,23.7449
-339.513,10.3968,58.577
-330.739,10.7949,48.2722
-330.983,6.61155,38.291
-347.666,24.8688,30.7939
-341.69,14.7283,22.7501
-342.772,9.28191,55.9089
-333.752,5.52884,48.1361
-339.13,3.85767,43.7104
-343.435,8.6909,36.9092
-344.025,8.17191,27.5784
-342.776,6.77918,21.3189
-340.403,-3.57626,46.4544
-342.124,-1.06249,45.7351
-352.486,8.67714,38.8297
-342.983,1.98266,20.3449
-343.431,-1.60241,19.4685
-352.515,-5.64995,57.0099
-341.11,-5.57563,47.4755
-341.998,-9.78506,43.783
-347.772,-7.99576,37.2074
-356.561,1.51048,25.6336
-339.672,-10.6581,27.0336
-342.334,-13.8076,52.8463
-340.011,-16.2626,45.4854
-338.79,-12.964,39.2845
-341.601,-15.8433,38.1129
-342.509,-15.6693,28.5681
-339.461,-12.4699,25.5993
-341.847,-21.5287,55.7816
-340.524,-16.7989,46.853
-340.874,-21.3606,40.1596
-340.758,-18.951,37.1334
-341.136,-17.3676,28.6715
-343.074,-27.6691,51.9037
-348.325,-25.9591,36.0332
-345.758,-21.8161,26.7652
-344.956,-25.9738,20.911
-344.62,-25.9569,18.5897
-306.123,-33.8459,141.094
-310.125,-35.0072,139.952
-318.458,-33.5732,145.541
-325.484,-35.1903,136.611
-350.86,-39.5084,129.695
-358.018,-38.6849,119.024
-358.871,-36.5249,59.9327
-307.28,-35.2367,140.471
-317.171,-37.1637,147.041
-329.205,-39.628,136.478
-309.539,-38.1022,141.049
-317.914,-40.3324,146.669
-329.873,-42.4017,134.315
-332.065,-46.9471,129.002
-335.674,-47.0152,124.734
-340.207,-47.9311,120.088
-346.226,-50.452,112.642
-347,-50.8116,106.05
-342.999,-50.4814,99.3854
-350.522,-52.9646,61.5828
-308.523,-40.4757,141.354
-312.854,-43.7396,141.296
-316.868,-44.5332,108.289
-337.59,-54.6651,119.691
-355.043,-56.8254,112.199
-307.346,-42.2467,141.117
-313.569,-47.6918,141.481
-315.244,-46.2674,108.968
-335.774,-54.709,121.059
-335.799,-58.1871,113.613
-337.903,-55.9197,101.268
-345.774,-65.2412,60.9495
-305.746,-44.9168,141.435
-314.245,-50.7665,141.054
-312.153,-50.4573,111.006
-325.549,-60.2069,117.599
-333.976,-60.6265,108.133
-333.169,-61.1718,103.24
-341.419,-71.0934,67.224
-305.386,-46.5952,142.059
-314.233,-52.4303,140.679
-313.66,-53.3258,113.419
-324.123,-60.7632,117.323
-330.418,-66.5722,117.06
-330.803,-69.2481,109.022
-330.469,-68.8034,106.64
-345.888,-75.273,100.422
-337.975,-72.6519,71.4196
-305.674,-50.0625,141.901
-310.59,-55.4325,141.515
-313.447,-57.3041,143.792
-309.647,-53.2422,113.533
-315.65,-59.9566,117.825
-323.02,-69.5447,118.391
-329.039,-71.8314,105.337
-327.756,-76.4224,100.813
-331.796,-79.2445,78.3667
-334.138,-77.6337,76.143
-305.122,-53.2698,140.32
-307.148,-57.5506,118.174
-309.322,-59.3021,115.993
-317.189,-65.6919,117.22
-320.456,-70.7783,118.2
-324.469,-78.1092,97.8623
-322.622,-77.8103,93.8454
-326.22,-79.0443,83.4306
-322.508,-79.6053,82.9199
-304.477,-57.986,136.55
-304.594,-59.4002,135.27
-304.7,-60.2342,121.249
-312.458,-67.8146,118.328
-318.649,-80.2674,89.4529
-315.567,-79.9078,87.0365
-302.804,-60.2621,139.749
-303.316,-64.7989,132.136
-304.493,-64.9755,126.167
-304.55,-69.2059,123.883
-308.168,-74.3365,117.205
-309.409,-73.7876,116.391
-342.026,-126.459,122.317
-331.445,-125.024,110.554
-309.413,-78.9547,92.0425
-315.23,-80.275,87.6325
-312.593,-81.7097,79.4584
-334.425,-117.996,68.4845
-310.904,-82.4672,53.2173
-298.844,-62.0752,137.07
-299.96,-65.4417,137.222
-301.517,-63.0558,125.801
-301.666,-70.1364,125.602
-303.523,-77.1125,116.708
-304.702,-81.4148,109.053
-304.405,-77.8274,95.7105
-307.734,-78.2613,93.4349
-320.787,-118.212,83.3904
-309.258,-89.8883,79.4615
-303.977,-81.3912,74.0115
-303.719,-80.1218,71.0053
-305.346,-78.5639,64.5368
-303.674,-79.6632,60.4247
-305.821,-77.6807,53.8879
-296.277,-62.7526,135.023
-297.953,-67.1884,129.565
-297.001,-70.0735,122.219
-299.61,-79.8734,115.317
-302.567,-81.4049,106.744
-298.5,-77.1863,98.3083
-301.432,-77.7121,97.4083
-316.902,-130.647,92.8522
-317.566,-126.177,73.8413
-298.524,-79.54,75.8961
-303.23,-80.8524,71.0709
-299.198,-81.364,66.4873
-292.706,-64.9168,132.116
-292.122,-69.9239,130.91
-293.901,-69.7338,121.044
-293.824,-81.8889,112.258
-297.085,-77.2706,98.7003
-293.939,-81.7428,99.2354
-293.339,-80.2945,89.0743
-295.308,-78.817,84.7187
-293.858,-78.2868,82.475
-295.537,-80.3426,75.0063
-298.232,-80.4639,72.3247
-296.857,-80.9065,65.7619
-294.06,-80.534,58.2553
-289.813,-67.6202,129.227
-290.788,-70.8175,121.289
-292.491,-82.2153,112.501
-288.51,-83.1201,110.544
-288.658,-75.2767,101.202
-289.402,-79.2886,95.2469
-292.643,-80.3261,91.1224
-292.257,-78.8011,84.5756
-288.733,-78.4852,82.9483
-293.074,-79.5628,78.0252
-292.913,-79.8857,55.9
-285.919,-68.9275,126.369
-286.571,-72.4657,121.217
-284.808,-72.6289,103.241
-284.484,-77.8581,97.5024
-287.416,-77.3326,88.0826
-286.06,-77.2558,87.157
-287.236,-96.5771,74.4885
-284.363,-78.0972,53.6578
-283.107,-69.3019,124.33
-283.287,-72.9843,120.668
-281.799,-73.5749,117.308
-280.351,-74.2644,113.115
-282.093,-71.2031,104.263
-281.49,-75.8071,99.192
-279.831,-74.2826,92.9545
-280.08,-75.2243,89.5142
-280.673,-75.9974,84.5905
-281.431,-76.9629,80.8575
-282.33,-78.3144,75.615
-282.793,-78.4251,71.5702
-282.732,-77.7526,66.2863
-282.192,-77.5376,61.2967
-277.237,-70.3707,120.376
-276.836,-70.3842,106.369
-280.024,-70.059,105.016
-279.498,-72.7873,97.9006
-274.476,-77.6256,93.2816
-276.701,-78.8675,88.7866
-277.704,-80.9821,86.0917
-278.258,-79.5459,82.5163
-275.38,-82.6293,77.2759
-274.966,-81.1448,70.565
-274.364,-80.1322,65.7555
-276.713,-81.8993,59.1515
-275.297,-82.1679,53.6325
-272.643,-70.2969,116.945
-274.362,-71.192,107.476
-274.764,-71.7344,102.642
-269.986,-75.1991,98.5072
-273.582,-77.2425,95.1812
-271.114,-79.3443,88.7059
-268.515,-77.9486,87.3726
-269.529,-77.3343,82.7846
-267.657,-80.5126,77.3936
-268.912,-78.7445,71.9581
-268.969,-78.6812,66.2404
-268.445,-78.7229,60.9994
-269.283,-76.9879,55.7525
-271.48,-70.5751,103.446
-269.723,-74.0883,98.6957
-269.318,-75.1717,97.9711
-265.523,-82.3443,94.2594
-266.623,-77.1025,86.5243
-264.331,-75.797,82.6811
-266.414,-77.0411,76.8086
-267.089,-76.8454,72.194
-265.277,-76.5796,63.4385
-267.554,-76.7654,58.8226
-267.172,-78.3133,54.2287
-264.95,-71.5711,81.4133
-261.981,-73.6691,70.8759
-262.99,-73.9122,65.7016
-263.626,-73.6608,61.6462
-276.184,10.8512,84.419
-274.702,16.9491,75.4907
-274.513,18.0536,70.2097
-276.283,17.7203,64.9655
-283.963,-13.0506,136.257
-284.988,-5.64737,132.304
-282.04,8.9251,114.75
-281.623,11.2185,110.591
-283.017,15.9881,109.915
-281.852,15.3898,101.056
-281.913,18.1806,98.4196
-280.427,12.7257,91.0776
-280.926,23.4684,85.1489
-278.365,13.376,82.0222
-282.517,16.5092,76.5672
-278.413,20.3966,71.4231
-287.525,-16.1826,138.129
-287.223,-11.2211,134.115
-287.358,-10.335,133.542
-286.411,0.744191,135.149
-284.905,6.38125,128.067
-285.837,5.47046,120.599
-284.112,6.66478,117.988
-286.879,10.151,112.289
-284.172,16.2944,109.088
-284.953,16.3714,104.495
-285.879,20.4487,100.364
-284.47,22.0986,92.3397
-283.689,23.2,89.2382
-283.271,18.1812,81.1034
-284.059,17.7696,74.4474
-284.26,18.8017,70.1072
-285.365,21.0658,64.9366
-288.559,-17.3771,138.711
-288.28,-11.6777,135.863
-291.114,-2.5252,129.045
-289.272,3.86045,122.97
-289.448,11.3915,116.2
-288.587,12.3641,111.123
-292.053,15.1977,107.028
-288.245,15.4345,104.784
-288.876,14.6048,88.6488
-289.368,19.8746,78.2491
-293.151,15.2697,74.4653
-288.647,22.5027,66.119
-290.791,-18.7024,139.868
-290.855,-9.58105,137.407
-293.068,-4.47737,134.426
-291.865,-2.03898,130.044
-294.129,2.27556,125.685
-296.133,4.54661,122.214
-293.221,10.703,119.109
-294.161,15.3065,111.79
-295.395,15.0169,110.649
-300.044,25.1402,108.721
-295.229,15.7519,86.3329
-297.028,14.0839,81.9746
-294.855,15.0105,78.2305
-291.794,-19.2315,139.736
-296.513,-0.487607,131.672
-295.751,1.92553,125.999
-296.673,5.09724,121.749
-297.39,7.74217,121.028
-298.431,13.0338,115.104
-300.421,24.0291,110.196
-300.779,25.0711,109.319
-302.876,12.7652,88.858
-300.038,14.1942,83.5054
-298.628,14.0852,82.9291
-304.524,21.2814,71.3357
-302.163,21.7243,69.6716
-293.39,-19.7872,138.88
-300.195,3.21422,128.466
-306.544,9.87531,126.925
-311.597,26.4785,112.027
-309.703,28.05,108.263
-311.912,20.2405,97.578
-304.434,11.8619,90.2876
-306.297,17.5613,85.5112
-307.544,24.0523,81.0356
-310.451,18.5062,76.6933
-314.926,34.3441,67.6669
-294.458,-20.456,137.377
-303.75,-1.47219,131.962
-302.875,-0.439985,131.371
-307.586,4.57448,129.515
-312.047,13.2077,121.763
-312.272,13.9767,120.595
-316.495,23.3848,114.371
-310.299,12.7618,94.1971
-308.95,12.2966,92.9075
-314.747,19.7209,72.4438
-318.714,21.609,69.0283
-296.213,-20.7955,137.864
-305.77,-5.4819,133.263
-310.185,3.49554,135.915
-315.861,6.03161,135.074
-320.127,12.0285,131.16
-317.366,16.6984,118.629
-323.145,16.788,111.945
-317.093,8.72961,101.267
-315.848,9.45712,99.6326
-317.969,13.905,93.9991
-320.727,21.9584,68.6487
-298.043,-22.1723,136.78
-307.972,-10.5451,135.852
-307.086,-8.42103,134.833
-317.559,3.63414,129.541
-324.651,9.38822,124.86
-323.224,13.8343,122.693
-319.18,7.80031,103.918
-322.51,10.5075,100.212
-328.53,20.0636,97.4965
-324.177,14.9268,88.865
-328.563,20.4022,79.9589
-331.282,21.2443,74.3535
-333.767,20.0496,66.1631
-298.48,-23.0642,136.576
-308.729,-12.4168,136.855
-323.598,-0.665939,130.483
-326.441,6.15398,126.291
-329.694,8.91836,123.599
-326.59,2.60726,107.253
-325.52,4.48756,105.226
-336.489,12.9126,104.397
-337.286,14.429,92.0058
-338.705,12.6241,89.0008
-335.642,16.3986,81.1878
-340.969,14.5977,73.6006
-339.003,12.8327,65.3211
-311.471,-15.8032,138.087
-329.53,-2.3954,131.057
-328.267,2.40222,127.617
-331.005,1.66154,120.198
-329.853,-0.299736,107.237
-340.154,6.19767,99.5101
-339.393,9.4275,95.7577
-339.37,12.0086,87.1996
-340.361,12.6666,81.5295
-339.822,9.86167,64.7355
-299.667,-25.3309,137.385
-326.59,-10.3259,124.13
-328.145,-8.43972,121.291
-331.481,-5.65724,117.228
-336.284,-3.72229,108.792
-331.89,-2.41139,106.427
-341.663,-1.21802,97.8333
-342.436,-1.31329,94.4031
-347.334,4.2416,77.2782
-346.251,4.65923,75.3421
-301.232,-26.9815,138.361
-315.643,-19.5157,139.869
-317.352,-19.1663,131.397
-318.493,-17.6691,129.237
-323.19,-12.9772,127.282
-337.149,-5.17343,109.174
-337.808,-7.60484,103.049
-344.568,-6.2092,101.131
-345.485,-6.53654,96.6088
-345.203,-1.36733,88.6475
-349.69,-1.79522,79.0422
-351.152,-1.85683,75.2313
-352.051,-4.52307,61.9258
-302.994,-28.2951,139.834
-315.911,-23.3985,134.682
-316.122,-21.695,134.945
-334.314,-16.6123,128.764
-336.17,-15.1707,123.344
-338.887,-13.2883,116.141
-340.387,-11.4254,110.751
-345.657,-7.79278,103.708
-348.26,-6.5878,91.0294
-346.962,-9.40401,85.3769
-344.968,-12.7105,80.381
-344.783,-14.0156,76.6054
-351.071,-5.81494,68.6241
-303.721,-29.0605,140.979
-315.734,-24.6105,135.068
-331.412,-22.8584,134.007
-332.641,-20.8457,133.224
-344.797,-20.4703,118.733
-345.229,-15.9836,116.517
-304.406,-30.7885,142.034
-311.988,-29.0904,138.814
-319.412,-28.3429,142.273
-328.052,-27.4004,134.769
-341.957,-27.4734,123.966
-344.356,-23.9719,120.742
-355.484,-24.9908,120.302
-360.347,-21.197,71.6538
-305.272,-32.7013,141.792
-310.66,-32.3537,139.27
-319.462,-31.2381,144.316
-325.472,-33.027,136.72
-331.091,-31.9094,131.348
-333.001,-32.9255,131.265
-337.467,-29.3106,124.996
-361.448,-27.6702,66.427
-265.592,-28.7687,119.57
-271.456,-28.7067,117.635
-276.89,-32.7901,134.419
-277.877,-31.1867,132.493
-275.662,-33.4105,134.822
-260.6,-31.5897,130.558
-273.66,-35.3583,134.666
-268.512,-35.8749,132.088
-272.559,-37.1645,133.603
-275.577,-38.6661,133.119
-259.052,-32.3146,127.95
-271.858,-39.5716,132.18
-273.321,-43.927,133.183
-269.378,-44.5088,129.391
-267.753,-44.6794,116.527
-258.853,-35.9275,130.308
-270.368,-49.9982,126.595
-273.01,-53.4166,121.552
-261.119,-40.3036,118.991
-271.368,-56.5047,122.598
-260.964,-43.9168,122.172
-264.966,-54.8437,113.268
-269.917,-60.2609,112.816
-254.993,-33.3992,123.804
-261.972,-52.7724,115.463
-269.666,-67.1953,115.705
-266.482,-69.0747,110.441
-266.069,-65.0975,105.45
-267.157,-69.5469,104.473
-256.993,-40.8278,129.698
-261.093,-65.4928,113.31
-264.09,-67.3982,112.146
-262.256,-65.9464,107.117
-263.661,-71.3288,100.371
-262.796,-68.5181,93.5547
-264.409,-76.2202,86.958
-255.794,-45.6771,129.758
-257.149,-53.4961,115.232
-256.4,-55.3068,114.796
-257.057,-58.1665,110.427
-258.276,-62.291,106.59
-258.214,-68.6406,107.419
-260.518,-69.3767,101.415
-258.93,-63.3896,98.167
-261.077,-72.0478,91.8481
-260.702,-71.8601,87.1661
-258.507,-68.4103,85.8694
-261.304,-71.3221,79.2906
-261.538,-72.7541,74.4224
-258.889,-80.0898,64.7567
-258.87,-74.9298,62.0811
-254.426,-43.006,120.23
-255.433,-53.0728,126.749
-255.603,-56.6899,124.596
-256.417,-66.8957,119.192
-253.599,-71.0367,115.985
-255.917,-72.6882,115.669
-256.3,-68.2409,103.851
-254.562,-68.6472,99.6567
-254.014,-67.7307,98.3646
-257.169,-72.0621,92.5522
-255.735,-72.7509,89.5815
-253.938,-73.4778,82.9003
-255.489,-74.2434,77.1691
-256.321,-72.5695,71.0334
-253.833,-73.0184,69.1836
-256.007,-74.0152,59.7764
-254.926,-73.1815,56.8234
-250.716,-60.5938,120.966
-252.989,-61.5281,116.784
-249.921,-67.6918,116.826
-252.546,-67.6335,106.942
-251.745,-66.4869,95.4946
-250.566,-72.603,91.5474
-248.548,-78.6133,89.8569
-250.494,-71.9408,82.8278
-252.294,-72.505,80.1444
-252.784,-72.9683,76.2058
-251.415,-70.852,68.7691
-252.727,-73.1895,63.3688
-248.862,-72.8174,54.13
-247.46,-60.6823,120.575
-247.644,-59.7816,118.495
-245.41,-65.0314,115.123
-247.893,-65.7931,105.323
-246.439,-65.5987,101.537
-248.385,-67.3758,98.7741
-245.922,-69.6539,93.0154
-244.47,-76.2397,90.576
-247.233,-71.7234,83.4892
-246.982,-71.9481,78.2077
-247.986,-73.3534,75.1397
-247.532,-74.934,68.7359
-245.467,-84.42,51.2044
-248.046,-73.3987,54.0818
-244.456,-56.1892,122.138
-242.603,-62.0625,114.67
-244.131,-64.1025,103.531
-242.769,-67.468,97.0792
-243.441,-68.1414,94.2828
-243.033,-69.598,87.5874
-241.97,-69.7253,85.0251
-240.616,-70.4194,80.0721
-241.859,-80.3584,59.1946
-243.112,-74.1151,52.0889
-244.247,-55.4896,122.363
-243.084,-58.0218,119.034
-241.334,-61.842,114.759
-240.047,-62.3769,105.858
-239.613,-66.5748,97.131
-239.254,-66.833,94.6778
-237.817,-70.285,90.0217
-238.731,-70.7871,74.8509
-237.094,-70.1544,67.3081
-240.013,-51.3388,124.306
-236.488,-63.0042,114.752
-235.764,-60.8999,107.571
-237.563,-61.6246,107.023
-236.264,-62.6951,101.393
-236.183,-65.3108,97.671
-234.785,-67.7971,95.2526
-238.434,-50.1021,123.439
-236.596,-55.2842,119.553
-233.296,-59.8697,107.868
-231.539,-64.1198,99.6965
-233.014,-62.7616,97.9601
-231.381,-64.9453,94.4951
-228.538,-66.6638,88.5334
-236.13,-49.6884,124.093
-230.538,-59.0367,108.55
-226.768,-60.4105,105.244
-227.797,-62.7944,100.524
-227.803,-61.4571,96.9756
-235.055,-48.337,124.693
-230.077,-52.33,120.798
-224.079,-56.3055,111.387
-225.289,-58.8962,107.818
-233.994,-45.5876,126.333
-224.179,-51.2105,117.731
-223.871,-54.355,114.243
-220.103,-56.6362,112.381
-231.859,-43.3093,126.747
-231.173,-42.9312,126.81
-226.71,-44.4511,122.468
-225.068,-48.2915,120.178
-225.28,-47.2872,104.431
-228.502,-40.6679,123.575
-224.411,-43.1258,124.158
-220.262,-46.4316,123.243
-220.325,-42.4239,122.036
-224.044,-38.7676,112.126
-223.995,-41.1649,105.421
-231.513,-35.3973,125.074
-220.006,-37.6324,119.05
-233.419,-31.5389,125.883
-222.35,-31.8053,121.511
-228.784,-30.4779,111.886
-235.712,-26.8401,126.188
-223.811,-25.6618,123.489
-223.351,-26.7852,116.537
-226.719,-28.1377,105.388
-224.592,-23.3122,124.112
-234.046,-22.9947,114.597
-222.852,-21.3194,124.102
-237.442,-22.6422,125.942
-224.804,-18.7015,117.842
-225.029,-14.0628,110.013
-230.405,-18.0008,104.6
-239.042,-20.0249,125.411
-227.292,-12.5731,118.956
-227.013,-13.1946,109.982
-226.227,-11.9007,106.677
-228.192,-9.19655,117.167
-230.023,-11.4344,108.614
-230.333,-9.87385,105.326
-241.366,-17.1454,124.952
-229.79,-3.37125,116.618
-233.264,-9.75661,106.624
-227.497,-4.31852,109.599
-226.554,0.708614,106.031
-241.542,-13.381,117.024
-232.594,-1.33983,115.565
-230.131,-0.880706,114.755
-237.39,-8.60677,105.149
-236.235,-6.30868,100.957
-243.271,-14.5307,124.424
-241.102,-8.15703,104.547
-232.967,4.06862,107.804
-233.362,5.5575,103.601
-243.709,-7.72105,104.07
-236.54,4.95701,103.382
-238.873,-0.6865,98.0825
-235.14,7.80903,98.9199
-235.846,9.42986,93.0833
-233.85,11.7997,88.0031
-246.349,-10.3976,123.415
-239.24,7.44112,113.397
-242.872,-4.61891,102.35
-243.45,-0.0303851,103.609
-237.247,9.54069,103.398
-241.517,4.49755,95.5619
-238.377,8.17066,92.5311
-236.455,13.7009,89.9473
-239.134,13.6554,85.8804
-247.983,-8.49691,122.614
-246.597,-6.73035,116.447
-246.952,-6.62776,103.081
-245.748,0.578898,103.34
-244.268,0.781579,100.465
-243.93,9.52784,95.7843
-243.282,6.4987,93.4688
-246.347,2.62459,88.9027
-244.52,11.4527,85.6724
-241.984,21.5748,78.6796
-245.924,5.08516,78.1408
-244.53,6.46405,74.4518
-249.031,-6.74497,121.885
-250.287,-5.38034,102.39
-249.568,-1.3955,101.193
-247.695,2.80071,98.0637
-248.515,13.9281,95.6121
-247.561,3.79716,92.2501
-246.687,2.64994,89.7467
-249.391,6.73365,86.3949
-247.628,6.04957,80.2463
-246.734,5.13915,79.0879
-247.414,12.3871,68.5353
-247.342,10.0641,62.5763
-252.104,-4.67259,125.033
-250.528,-1.02754,121.617
-252.382,-2.48406,114.215
-252.637,-2.31886,114.215
-252.244,-4.75988,102.449
-249.741,4.07169,102.017
-251.5,2.66531,99.7067
-250.946,9.05701,96.6201
-251.346,8.87737,91.8926
-250.11,7.96486,87.282
-249.611,6.61993,86.4358
-253.023,7.88851,82.0952
-252.464,16.1892,72.0505
-251.356,15.9868,68.8663
-250.901,13.2167,61.0421
-253.286,-6.7349,127.361
-256.08,3.37914,119.849
-254.135,1.19687,110.263
-253.583,-4.41692,102.932
-254.46,1.10624,100.477
-256.873,8.87743,100.358
-254.912,3.65792,97.2983
-256.274,11.3323,93.8442
-254.023,14.3515,83.0261
-253.515,8.47778,82.7355
-255.535,19.8295,73.1696
-256.406,20.4619,68.517
-254.741,24.2365,56.2798
-255.301,-13.9645,124.656
-255.623,-7.00056,127.49
-255.953,-3.10348,122.424
-258.429,0.0821625,122.468
-257.652,0.91353,115.021
-259.463,8.49179,113.619
-259.128,7.81781,108.65
-256.692,-1.51025,100.444
-258.86,0.360602,99.2207
-258.647,5.23624,95.4867
-259.613,9.81161,92.1694
-261.104,16.001,90.6267
-261.957,13.3757,84.8668
-260.362,15.1418,78.9862
-258.657,16.1104,71.9516
-259.544,19.0988,63.9068
-261.638,24.3427,59.7243
-254.932,-22.369,125.664
-257.304,-15.2729,129.343
-257.536,-8.99078,127.764
-258.04,-6.09163,127.205
-261.116,0.494011,118.091
-263.134,4.39234,115.722
-260.779,5.78145,112.334
-261.477,2.52078,97.042
-264.309,14.2883,90.8859
-262.422,12.4366,86.5615
-264.305,16.06,81.0875
-263.463,15.0582,80.0237
-263.45,16.901,72.9279
-264.538,20.206,67.5352
-261.971,-4.51548,127.887
-264.02,1.26695,121.55
-264.936,7.29246,113.1
-271.605,15.0198,104.389
-267.152,7.49284,95.6866
-265.141,5.74603,92.4073
-266.492,8.12695,90.3466
-267.815,11.5138,85.8096
-266.852,13.6436,77.8511
-272.907,16.3967,72.768
-271.543,22.207,66.3443
-264.475,-5.36995,128.15
-265.611,-3.18112,126.329
-268.117,1.05907,115.426
-268.043,2.56516,115.382
-271.706,6.23493,111.504
-272.055,11.1304,109.917
-277.075,13.3751,103.216
-275.917,14.7443,99.743
-272.162,8.97202,91.4508
-273.855,8.94205,89.036
-274.209,14.8593,85.3815
-274.54,16.9002,75.1816
-274.051,18.1606,74.0405
-267.1,-7.29509,128.622
-268.771,-4.61483,123.463
-269.796,-1.85332,121.508
-271.252,-3.04166,115.35
-275.593,8.25754,115.693
-276.977,8.74319,115.282
-277.407,12.8164,106.791
-277.323,12.8881,104.368
-275.215,9.53957,86.4545
-267.984,-10.7731,127.885
-274.222,-4.84165,129.25
-274.881,-1.40445,128.258
-273.331,-3.04969,117.349
-280.629,6.19632,116.699
-258.154,-23.8412,129.026
-267.049,-14.5196,128.823
-269.593,-12.7406,116.249
-279.53,-2.90453,131.32
-279.727,-0.983429,122.694
-266.028,-17.4031,129.358
-277.835,-8.28043,133.161
-279.106,-7.02774,125.66
-264.44,-21.7505,129.699
-279.497,-12.4162,133.456
-281.276,-10.7785,131.983
-267.974,-20.759,132.05
-273.514,-17.0742,118.885
-263.025,-25.8049,130.16
-278.905,-22.2769,128.995
-221.924,-43.0059,104.557
-235.824,-68.689,59.5678
-240.139,-81.48,52.4824
-238.094,-80.8524,44.9835
-233.737,-66.4501,44.2026
-235.248,-75.1326,31.0161
-231.925,-65.9399,32.659
-221.886,-50.5095,97.1701
-226.078,-55.9281,94.8634
-232.395,-80.3097,57.6798
-234.834,-86.5443,52.254
-229.864,-77.1189,40.1934
-230.244,-75.3912,34.8829
-229.337,-69.8405,30.1372
-227.659,-69.2145,18.911
-216.619,-40.9964,121.167
-219.952,-58.0133,100.68
-222.836,-59.244,99.1616
-224.706,-65.3864,94.5461
-225.813,-68.6418,89.9918
-222.117,-69.0006,86.2653
-222.924,-67.4119,81.5649
-223.396,-72.5553,76.5424
-220.991,-57.7681,73.4494
-225.608,-72.6761,66.9121
-227.692,-75.5489,55.166
-222.324,-63.6219,54.1782
-226.539,-77.5274,42.731
-228.365,-76.9933,36.037
-227.919,-72.9718,30.7272
-226.052,-70.1362,23.3296
-225.807,-67.5683,13.9881
-222.231,-56.7994,10.3218
-219.231,-50.2033,5.82959
-214.953,-39.2765,121.583
-215.602,-42.4832,124.353
-215.592,-46.4595,111.382
-217.368,-55.2778,113.458
-218.444,-61.3133,101.945
-218.527,-52.3485,93.7451
-217.289,-64.2856,96.3054
-219.611,-61.7647,89.6235
-218.966,-68.4264,86.9574
-221.338,-72.7391,84.5354
-221.751,-71.5492,78.9785
-218.727,-73.3364,73.9492
-220.764,-76.3166,67.7333
-220.31,-77.6218,63.2495
-221.607,-79.1899,55.5985
-219.381,-82.844,38.7017
-223.792,-80.9182,29.7503
-218.689,-66.6002,26.843
-218.401,-62.9602,23.272
-220.094,-60.2058,14.0375
-217.021,-53.3587,9.08398
-213.206,-35.9248,122.162
-212.936,-53.7437,114.763
-212.983,-49.7247,105.71
-214.168,-63.5214,110.962
-215.88,-54.8372,99.0871
-213.661,-62.2197,98.1559
-214.228,-60.7546,93.2648
-214.65,-65.5642,92.7752
-214.462,-69.8389,86.2028
-215.728,-69.5499,84.4434
-216.98,-65.8613,78.4857
-215.734,-62.3599,74.5003
-215.203,-74.3959,65.2403
-214.36,-73.0257,65.0431
-213.01,-73.1871,55.4757
-214.146,-68.1031,53.1915
-213.525,-71.4352,36.6676
-214.975,-77.2578,22.0584
-213.575,-68.0104,21.1446
-215.65,-63.944,21.8642
-214.397,-57.094,12.474
-212.702,-28.605,118.019
-212.28,-34.6611,121.312
-212.436,-40.1146,125.051
-210.254,-52.442,102.936
-212.792,-56.4894,102.64
-210.661,-61.9909,101.536
-209.741,-64.6879,90.2892
-212.199,-72.1791,80.8358
-209.571,-73.789,77.7856
-210.027,-71.234,75.2846
-212.655,-86.0374,68.0042
-207.842,-90.5118,61.3849
-212.575,-76.9561,50.7798
-212.413,-73.7205,45.5437
-209.824,-66.237,29.0811
-211.608,-33.7461,120.718
-210.396,-38.1933,115.959
-210.608,-44.297,112.636
-209.721,-52.334,115.625
-209.279,-54.424,112.826
-207.441,-55.8767,103.495
-209.449,-56.0037,101.815
-208.999,-58.6733,96.5783
-207.453,-58.8867,93.0244
-205.663,-71.1249,95.5734
-205.678,-75.2642,76.8164
-207.492,-74.6976,74.6042
-204.751,-76.1223,67.4867
-204.184,-76.1847,63.5909
-203.643,-75.8004,58.8175
-203.528,-73.917,49.5933
-211.068,-32.4538,119.734
-208.46,-41.0442,107.966
-207.07,-51.9283,114.954
-205.372,-59.2679,113.549
-202.866,-58.6914,112.996
-203.028,-58.5195,105.268
-205.632,-59.7308,96.661
-202.254,-70.5422,98.2923
-204.125,-61.5073,89.729
-204.126,-61.1696,86.7103
-198.977,-74.5301,76.977
-201.867,-64.7949,73.8736
-202.218,-67.1091,60.7968
-210.831,-31.4479,118.884
-208.824,-36.8092,125.413
-203.477,-48.9407,117.97
-202.972,-55.3801,104.352
-201.753,-57.0031,104.481
-198.22,-70.2106,99.8561
-193.989,-74.2241,94.1286
-200.638,-63.2989,81.0619
-195.964,-65.9881,72.8726
-202.4,-47.4743,119.113
-201.009,-46.5241,113.293
-200.694,-49.2037,111.509
-196.681,-54.0928,105.247
-193.283,-69.0951,101.004
-189.904,-73.6543,94.6769
-210.337,-30.0871,118.107
-207.867,-34.2593,110.28
-204.593,-40.2422,116.248
-202.661,-43.458,115.319
-199.605,-48.8421,117.381
-195.397,-53.4051,113.555
-192.566,-58.1818,112.559
-187.04,-67.7373,101.963
-208.237,-31.5794,117.432
-206.145,-34.1279,125.266
-199.293,-43.1803,120.902
-196.329,-47.9387,117.865
-194.005,-51.2796,114.037
-188.31,-56.273,113.554
-190.357,-53.1064,106.192
-210.233,-28.668,118.041
-196.426,-42.6033,121.461
-191.048,-45.7912,119.37
-190.768,-46.2806,115.483
-187.845,-52.6397,112.25
-185.602,-52.1001,107.015
-208.951,-29.0588,117.903
-194.478,-41.9435,122.067
-190.552,-43.5521,116.012
-190.645,-45.2557,115.625
-182.134,-52.5404,116.118
-209.428,-27.9186,117.999
-190.675,-40.3383,121.906
-190.697,-39.8899,116.249
-203.386,-30.467,125.106
-190.719,-38.2917,116.587
-190.552,-35.2167,117.635
-183.402,-38.0552,122.245
-178.813,-37.9895,123.373
-209.51,-26.8111,118.213
-190.697,-32.8841,118.357
-209.388,-26.3118,118.12
-207.725,-26.6665,113.549
-191.055,-29.8631,118.439
-208.606,-25.973,117.367
-208.468,-25.898,116.984
-202.042,-26.6411,124.702
-191.564,-27.5643,118.052
-206.992,-25.5839,116.649
-192.147,-23.8565,116.82
-185.949,-25.1568,120.584
-207.119,-25.0499,116.464
-201.256,-24.304,123.9
-184.609,-21.675,120.058
-207.271,-24.373,116.17
-192.497,-21.3954,115.468
-183.573,-18.5093,119.696
-207.683,-23.7321,115.5
-200.54,-21.8114,118.131
-192.589,-17.4648,113.859
-183.082,-15.7256,118.975
-209.22,-24.1731,116.61
-208.474,-23.5393,115.161
-200.804,-19.5532,119.709
-198.771,-17.9768,122.418
-182.287,-11.9558,117.594
-209.636,-23.7441,116.931
-208.414,-22.6788,115.344
-203.521,-20.1337,115.263
-192.693,-14.0412,111.353
-180.652,-6.39944,113.625
-209.772,-23.2921,117.05
-208.348,-21.8894,114.579
-197.784,-13.8838,120.95
-193.033,-10.618,108.369
-204.987,-17.2119,117.077
-202.172,-14.4731,118.472
-197.511,-10.6437,119.017
-193.4,-7.70634,105.533
-200.081,-9.38108,112.9
-199.22,-8.15558,111.373
-195.765,-3.3146,112.733
-193.849,-4.03828,100.873
-185.38,7.63796,100.684
-207.079,-16.6476,114.439
-204.688,-14.2497,114.828
-199.501,-5.50738,109.933
-194.109,0.379269,108.512
-193.454,3.48092,104.889
-194.175,0.40182,94.669
-194.764,4.13923,90.1016
-208.99,-18.4607,114.84
-204.607,-10.535,111.641
-204.475,-7.44812,109.563
-201.642,-1.68009,107.135
-196.295,8.45537,100.552
-192.646,10.1873,97.0058
-192.237,13.2156,92.3186
-195.76,8.57309,84.3201
-196.143,11.7399,80.0501
-191.871,18.1927,80.0982
-211.629,-22.1858,118.676
-203.843,-2.15431,105.582
-202.551,0.522038,101.854
-203.866,1.68099,100.842
-200.855,11.1463,80.3954
-195.606,17.3161,79.857
-195.912,14.7823,74.2451
-194.975,16.4863,69.8354
-211.594,-20.1602,117.682
-210.01,-13.9483,114.237
-206.148,1.76912,98.5713
-203.543,4.57494,97.4688
-202.892,6.53504,94.8968
-202.679,9.94503,88.5452
-203.092,11.0089,83.5021
-204.392,10.4484,80.0863
-203.278,8.3901,75.5346
-203.11,8.41997,75.2502
-201.046,21.3,69.6439
-201.538,22.5202,41.9885
-211.714,-18.946,111.439
-212.006,-17.7366,109.997
-211.466,-12.637,113.271
-209.2,2.43269,96.5151
-209.617,5.22541,94.0567
-207.561,15.1726,84.3737
-208.629,10.7035,79.3397
-208.571,10.8207,79.0571
-205.016,20.7489,70.7139
-207.424,20.9265,69.4457
-205.918,17.9947,49.8229
-206.909,15.5792,49.0637
-205.472,22.2088,32.6508
-204.44,16.5428,34.0002
-212.195,-17.5688,110.193
-212.753,-13.7723,112.253
-210.995,0.870827,93.8224
-209.983,10.5827,96.1744
-209.702,17.0415,94.1571
-210.139,14.5214,86.1474
-209.58,19.6392,72.2672
-212.514,20.5849,69.9384
-210.571,25.284,56.6168
-211.778,25.0089,44.3033
-210.782,17.6093,40.6566
-210.893,13.5385,31.7358
-210.783,13.3454,31.4979
-210.774,16.8446,15.9542
-213.308,-10.6759,112.197
-214.083,-8.4686,110.385
-214.785,-4.95285,107.046
-213.632,10.6104,92.9124
-214.507,13.3978,88.7608
-213.302,15.4566,81.9665
-214.105,19.1776,73.413
-214.204,28.6641,60.6664
-217.708,25.6089,52.8596
-216.981,20.2959,48.4741
-213.134,22.2218,38.8295
-213.676,14.8467,30.9373
-213.516,14.5067,30.2065
-213.82,16.3685,14.5291
-214.913,9.60496,7.6684
-215.905,-0.869424,103.238
-217.12,2.31563,99.8558
-219.184,6.21753,94.6061
-220.124,10.8068,94.562
-219.531,7.35075,88.8289
-220.507,11.4672,87.0385
-220.477,13.4183,82.936
-220.755,19.5026,74.1044
-222.731,21.2523,62.1431
-221.104,21.8012,57.1776
-218.895,20.9931,52.0756
-221.981,24.5518,43.3042
-218.608,22.9485,36.8193
-217.499,17.3882,29.5574
-220.946,18.0958,14.9389
-219.341,14.4824,17.4241
-220.794,10.785,92.9694
-220.258,8.11488,89.3736
-221.611,12.4591,83.807
-221.919,13.0062,82.0837
-225.578,14.4011,79.7609
-224.067,19.1311,72.2312
-223.599,20.8411,66.1861
-224.808,27.4473,54.4009
-227.383,24.6691,42.504
-224.75,23.3306,33.4462
-225.078,20.2067,26.3628
-226.993,21.4074,14.7631
-222.107,11.6476,18.2786
-214.75,-21.6526,117.324
-218.286,-13.2458,115.995
-225.523,5.51682,100.427
-224.524,7.51717,97.8871
-225.133,10.3927,94.015
-226.008,6.85576,90.1864
-228.364,12.1572,88.297
-226.009,13.7463,80.1449
-226.028,13.8505,79.6117
-230.128,19.1314,72.1859
-233.451,31.8145,58.5134
-231.195,25.13,41.391
-231.184,21.4801,29.0867
-220.821,-9.05067,115.719
-226.249,2.53367,103.871
-231.255,6.01417,91.243
-231.963,15.8759,89.0078
-236.783,15.5628,76.4121
-236.52,17.4593,73.2006
-238.379,20.2923,68.6473
-238.766,25.6434,38.3015
-236.925,15.525,79.0226
-237.155,13.9016,74.7246
-239.994,18.6522,68.7142
-242.65,18.7144,63.5535
-223.407,-13.4952,108.446
-214.403,-43.4016,-4.16483
-206.852,-40.5993,-4.62184
-215.354,-45.263,-4.49042
-203.767,-40.8576,-3.86966
-200.436,-40.7264,-2.85028
-187.502,-33.1178,-15.3437
-211.771,-52.2374,-0.0999031
-200.128,-44.5698,-0.854395
-196.687,-42.0714,4.13521
-212.419,-59.0019,14.5193
-213.648,-60.4782,2.6235
-212.96,-56.9209,-1.753
-196.137,-42.6898,4.02865
-211.446,-65.7975,17.864
-207.89,-62.1292,20.7706
-207.955,-58.4458,7.36229
-190.326,-42.7078,-1.66595
-204.573,-65.8004,43.3661
-205.822,-65.6265,30.7533
-205.991,-64.4809,25.4646
-206.165,-62.0941,14.9011
-206.318,-62.3431,11.8025
-203.484,-72.7705,45.7847
-203.673,-71.1188,40.4304
-202.051,-67.9565,32.713
-204.333,-66.0842,28.7353
-199.933,-65.8272,18.7971
-199.668,-61.391,12.6348
-184.604,-39.0368,-11.3403
-204.302,-79.6911,44.3811
-197.109,-71.2209,41.2116
-197.983,-72.1305,21.0322
-196.29,-65.8642,19.452
-191.688,-59.8163,13.2106
-192.978,-74.733,77.6214
-192.546,-67.221,66.3366
-202.733,-88.2528,50.7656
-192.282,-73.6181,51.1817
-194.892,-72.5184,45.3733
-188.611,-62.0679,23.0131
-188.389,-59.8449,22.9401
-187.343,-73.2536,94.7425
-188.261,-76.5036,84.9383
-188.334,-74.9036,62.9143
-188.123,-69.1004,55.7415
-192.98,-79.379,39.7417
-188.823,-76.4839,36.2484
-188.231,-76.5392,33.7252
-186.28,-58.5186,13.4599
-182.041,-48.1192,-0.648729
-181.736,-43.9079,-1.06438
-178.014,-37.4592,122.095
-179.081,-50.8926,107.538
-182.747,-67.3063,102.455
-183.16,-71.2211,91.2415
-183.669,-72.3248,89.962
-182.872,-71.9082,80.4541
-184.883,-73.9021,74.5483
-186.341,-74.6355,69.8062
-185.076,-69.5925,46.5702
-184.997,-73.5179,33.1036
-181.77,-67.3935,33.6803
-180.166,-62.0784,19.9592
-180.288,-57.0178,13.8912
-180.753,-55.6205,9.47377
-178.53,-50.518,117.151
-177.775,-53.9934,111.381
-176.407,-54.3852,105.76
-178.46,-66.5216,103.159
-178.052,-65.8087,93.5611
-179.337,-68.6622,89.2898
-180.808,-70.2759,85.855
-177.395,-76.2674,78.1462
-179.428,-70.0462,28.368
-178.213,-66.7245,20.8697
-177.148,-63.1648,17.8713
-176.621,-56.2398,14.0005
-176.172,-36.5194,123.924
-175.083,-46.0007,113.895
-175.403,-51.3327,108.336
-176.099,-55.7129,103.837
-174.529,-58.6252,100.098
-176.124,-61.555,100.077
-174.727,-65.9196,23.7121
-176.15,-60.4657,15.3051
